4.936000000000000000e+03 4.936000000000000000e+03 4.916000000000000000e+03 4.916000000000000000e+03 4.936000000000000000e+03 4.936000000000000000e+03 4.977000000000000000e+03 4.997000000000000000e+03 5.039000000000000000e+03 5.060000000000000000e+03 5.081000000000000000e+03 5.081000000000000000e+03 5.102000000000000000e+03 5.102000000000000000e+03 5.102000000000000000e+03 5.102000000000000000e+03 5.102000000000000000e+03 5.102000000000000000e+03 5.102000000000000000e+03 5.081000000000000000e+03 5.060000000000000000e+03 5.039000000000000000e+03 5.039000000000000000e+03 5.039000000000000000e+03 5.039000000000000000e+03 5.039000000000000000e+03 5.039000000000000000e+03 5.060000000000000000e+03 5.060000000000000000e+03 5.081000000000000000e+03 5.102000000000000000e+03 5.102000000000000000e+03 5.102000000000000000e+03 5.124000000000000000e+03 5.124000000000000000e+03 5.124000000000000000e+03 5.102000000000000000e+03 5.081000000000000000e+03 5.060000000000000000e+03 4.997000000000000000e+03 4.936000000000000000e+03 4.877000000000000000e+03 4.800000000000000000e+03 4.743000000000000000e+03 4.707000000000000000e+03 4.635000000000000000e+03 4.582000000000000000e+03 4.565000000000000000e+03 4.531000000000000000e+03 4.514000000000000000e+03 4.481000000000000000e+03 4.481000000000000000e+03 4.448000000000000000e+03 4.400000000000000000e+03 4.368000000000000000e+03 4.337000000000000000e+03 4.321000000000000000e+03 4.291000000000000000e+03 4.291000000000000000e+03 4.261000000000000000e+03 4.216000000000000000e+03 4.216000000000000000e+03 4.216000000000000000e+03 4.216000000000000000e+03 4.231000000000000000e+03 4.216000000000000000e+03 4.202000000000000000e+03 4.187000000000000000e+03 4.202000000000000000e+03 4.216000000000000000e+03 4.231000000000000000e+03 4.246000000000000000e+03 4.246000000000000000e+03 4.261000000000000000e+03 4.276000000000000000e+03 4.276000000000000000e+03 4.291000000000000000e+03 4.261000000000000000e+03 4.246000000000000000e+03 4.216000000000000000e+03 4.202000000000000000e+03 4.187000000000000000e+03 4.159000000000000000e+03 4.144000000000000000e+03 4.130000000000000000e+03 4.130000000000000000e+03 4.130000000000000000e+03 4.130000000000000000e+03 4.130000000000000000e+03 4.130000000000000000e+03 4.130000000000000000e+03 4.130000000000000000e+03 4.130000000000000000e+03 4.130000000000000000e+03 4.130000000000000000e+03 4.130000000000000000e+03 4.130000000000000000e+03 4.130000000000000000e+03 4.116000000000000000e+03 4.116000000000000000e+03 4.116000000000000000e+03 4.116000000000000000e+03 4.116000000000000000e+03 4.116000000000000000e+03 4.116000000000000000e+03 4.116000000000000000e+03 4.130000000000000000e+03 4.130000000000000000e+03 4.144000000000000000e+03 4.144000000000000000e+03 4.159000000000000000e+03 4.187000000000000000e+03 4.202000000000000000e+03 4.216000000000000000e+03 4.246000000000000000e+03 4.291000000000000000e+03 4.337000000000000000e+03 4.384000000000000000e+03 4.432000000000000000e+03
4.977000000000000000e+03 4.956000000000000000e+03 4.936000000000000000e+03 4.936000000000000000e+03 4.936000000000000000e+03 4.936000000000000000e+03 4.936000000000000000e+03 4.977000000000000000e+03 4.997000000000000000e+03 5.018000000000000000e+03 5.039000000000000000e+03 5.039000000000000000e+03 5.081000000000000000e+03 5.081000000000000000e+03 5.081000000000000000e+03 5.081000000000000000e+03 5.102000000000000000e+03 5.081000000000000000e+03 5.102000000000000000e+03 5.081000000000000000e+03 5.081000000000000000e+03 5.060000000000000000e+03 5.060000000000000000e+03 5.081000000000000000e+03 5.081000000000000000e+03 5.081000000000000000e+03 5.081000000000000000e+03 5.102000000000000000e+03 5.124000000000000000e+03 5.124000000000000000e+03 5.145000000000000000e+03 5.145000000000000000e+03 5.167000000000000000e+03 5.167000000000000000e+03 5.145000000000000000e+03 5.145000000000000000e+03 5.124000000000000000e+03 5.102000000000000000e+03 5.081000000000000000e+03 5.018000000000000000e+03 4.977000000000000000e+03 4.877000000000000000e+03 4.800000000000000000e+03 4.743000000000000000e+03 4.688000000000000000e+03 4.617000000000000000e+03 4.582000000000000000e+03 4.548000000000000000e+03 4.514000000000000000e+03 4.497000000000000000e+03 4.464000000000000000e+03 4.448000000000000000e+03 4.416000000000000000e+03 4.384000000000000000e+03 4.352000000000000000e+03 4.321000000000000000e+03 4.291000000000000000e+03 4.276000000000000000e+03 4.276000000000000000e+03 4.246000000000000000e+03 4.216000000000000000e+03 4.216000000000000000e+03 4.202000000000000000e+03 4.216000000000000000e+03 4.216000000000000000e+03 4.216000000000000000e+03 4.202000000000000000e+03 4.187000000000000000e+03 4.202000000000000000e+03 4.216000000000000000e+03 4.246000000000000000e+03 4.261000000000000000e+03 4.276000000000000000e+03 4.276000000000000000e+03 4.291000000000000000e+03 4.306000000000000000e+03 4.306000000000000000e+03 4.276000000000000000e+03 4.261000000000000000e+03 4.231000000000000000e+03 4.216000000000000000e+03 4.187000000000000000e+03 4.173000000000000000e+03 4.159000000000000000e+03 4.144000000000000000e+03 4.144000000000000000e+03 4.144000000000000000e+03 4.130000000000000000e+03 4.130000000000000000e+03 4.130000000000000000e+03 4.130000000000000000e+03 4.130000000000000000e+03 4.130000000000000000e+03 4.130000000000000000e+03 4.130000000000000000e+03 4.130000000000000000e+03 4.130000000000000000e+03 4.130000000000000000e+03 4.130000000000000000e+03 4.130000000000000000e+03 4.130000000000000000e+03 4.130000000000000000e+03 4.116000000000000000e+03 4.116000000000000000e+03 4.116000000000000000e+03 4.116000000000000000e+03 4.116000000000000000e+03 4.130000000000000000e+03 4.130000000000000000e+03 4.130000000000000000e+03 4.159000000000000000e+03 4.173000000000000000e+03 4.187000000000000000e+03 4.202000000000000000e+03 4.231000000000000000e+03 4.276000000000000000e+03 4.321000000000000000e+03 4.368000000000000000e+03 4.416000000000000000e+03
5.018000000000000000e+03 4.977000000000000000e+03 4.956000000000000000e+03 4.936000000000000000e+03 4.916000000000000000e+03 4.916000000000000000e+03 4.916000000000000000e+03 4.956000000000000000e+03 4.977000000000000000e+03 4.997000000000000000e+03 5.018000000000000000e+03 5.018000000000000000e+03 5.039000000000000000e+03 5.060000000000000000e+03 5.060000000000000000e+03 5.060000000000000000e+03 5.081000000000000000e+03 5.081000000000000000e+03 5.102000000000000000e+03 5.081000000000000000e+03 5.081000000000000000e+03 5.081000000000000000e+03 5.081000000000000000e+03 5.102000000000000000e+03 5.102000000000000000e+03 5.124000000000000000e+03 5.145000000000000000e+03 5.167000000000000000e+03 5.167000000000000000e+03 5.189000000000000000e+03 5.212000000000000000e+03 5.212000000000000000e+03 5.212000000000000000e+03 5.212000000000000000e+03 5.212000000000000000e+03 5.189000000000000000e+03 5.167000000000000000e+03 5.124000000000000000e+03 5.102000000000000000e+03 5.039000000000000000e+03 4.977000000000000000e+03 4.877000000000000000e+03 4.819000000000000000e+03 4.762000000000000000e+03 4.707000000000000000e+03 4.635000000000000000e+03 4.582000000000000000e+03 4.548000000000000000e+03 4.531000000000000000e+03 4.497000000000000000e+03 4.448000000000000000e+03 4.448000000000000000e+03 4.416000000000000000e+03 4.384000000000000000e+03 4.337000000000000000e+03 4.306000000000000000e+03 4.291000000000000000e+03 4.276000000000000000e+03 4.276000000000000000e+03 4.246000000000000000e+03 4.216000000000000000e+03 4.202000000000000000e+03 4.202000000000000000e+03 4.216000000000000000e+03 4.216000000000000000e+03 4.216000000000000000e+03 4.202000000000000000e+03 4.187000000000000000e+03 4.202000000000000000e+03 4.216000000000000000e+03 4.231000000000000000e+03 4.261000000000000000e+03 4.261000000000000000e+03 4.276000000000000000e+03 4.306000000000000000e+03 4.306000000000000000e+03 4.306000000000000000e+03 4.276000000000000000e+03 4.261000000000000000e+03 4.246000000000000000e+03 4.216000000000000000e+03 4.202000000000000000e+03 4.173000000000000000e+03 4.159000000000000000e+03 4.159000000000000000e+03 4.144000000000000000e+03 4.144000000000000000e+03 4.144000000000000000e+03 4.144000000000000000e+03 4.144000000000000000e+03 4.144000000000000000e+03 4.130000000000000000e+03 4.130000000000000000e+03 4.130000000000000000e+03 4.130000000000000000e+03 4.130000000000000000e+03 4.130000000000000000e+03 4.130000000000000000e+03 4.130000000000000000e+03 4.130000000000000000e+03 4.130000000000000000e+03 4.130000000000000000e+03 4.130000000000000000e+03 4.116000000000000000e+03 4.116000000000000000e+03 4.116000000000000000e+03 4.116000000000000000e+03 4.130000000000000000e+03 4.130000000000000000e+03 4.130000000000000000e+03 4.144000000000000000e+03 4.159000000000000000e+03 4.173000000000000000e+03 4.187000000000000000e+03 4.216000000000000000e+03 4.246000000000000000e+03 4.291000000000000000e+03 4.321000000000000000e+03 4.368000000000000000e+03
5.039000000000000000e+03 4.997000000000000000e+03 4.977000000000000000e+03 4.936000000000000000e+03 4.936000000000000000e+03 4.916000000000000000e+03 4.896000000000000000e+03 4.916000000000000000e+03 4.936000000000000000e+03 4.956000000000000000e+03 4.977000000000000000e+03 4.997000000000000000e+03 4.997000000000000000e+03 4.997000000000000000e+03 4.997000000000000000e+03 5.018000000000000000e+03 5.039000000000000000e+03 5.039000000000000000e+03 5.060000000000000000e+03 5.081000000000000000e+03 5.081000000000000000e+03 5.081000000000000000e+03 5.102000000000000000e+03 5.124000000000000000e+03 5.145000000000000000e+03 5.167000000000000000e+03 5.189000000000000000e+03 5.212000000000000000e+03 5.234000000000000000e+03 5.257000000000000000e+03 5.257000000000000000e+03 5.257000000000000000e+03 5.279000000000000000e+03 5.279000000000000000e+03 5.257000000000000000e+03 5.234000000000000000e+03 5.212000000000000000e+03 5.167000000000000000e+03 5.124000000000000000e+03 5.081000000000000000e+03 4.997000000000000000e+03 4.916000000000000000e+03 4.819000000000000000e+03 4.762000000000000000e+03 4.707000000000000000e+03 4.617000000000000000e+03 4.565000000000000000e+03 4.531000000000000000e+03 4.497000000000000000e+03 4.464000000000000000e+03 4.416000000000000000e+03 4.416000000000000000e+03 4.384000000000000000e+03 4.352000000000000000e+03 4.321000000000000000e+03 4.291000000000000000e+03 4.276000000000000000e+03 4.261000000000000000e+03 4.261000000000000000e+03 4.246000000000000000e+03 4.216000000000000000e+03 4.202000000000000000e+03 4.202000000000000000e+03 4.202000000000000000e+03 4.216000000000000000e+03 4.202000000000000000e+03 4.187000000000000000e+03 4.187000000000000000e+03 4.202000000000000000e+03 4.216000000000000000e+03 4.231000000000000000e+03 4.246000000000000000e+03 4.261000000000000000e+03 4.276000000000000000e+03 4.291000000000000000e+03 4.306000000000000000e+03 4.306000000000000000e+03 4.276000000000000000e+03 4.261000000000000000e+03 4.231000000000000000e+03 4.216000000000000000e+03 4.187000000000000000e+03 4.173000000000000000e+03 4.159000000000000000e+03 4.159000000000000000e+03 4.159000000000000000e+03 4.159000000000000000e+03 4.144000000000000000e+03 4.144000000000000000e+03 4.144000000000000000e+03 4.144000000000000000e+03 4.144000000000000000e+03 4.144000000000000000e+03 4.130000000000000000e+03 4.130000000000000000e+03 4.130000000000000000e+03 4.130000000000000000e+03 4.130000000000000000e+03 4.130000000000000000e+03 4.130000000000000000e+03 4.130000000000000000e+03 4.130000000000000000e+03 4.116000000000000000e+03 4.116000000000000000e+03 4.116000000000000000e+03 4.116000000000000000e+03 4.116000000000000000e+03 4.116000000000000000e+03 4.116000000000000000e+03 4.116000000000000000e+03 4.130000000000000000e+03 4.144000000000000000e+03 4.159000000000000000e+03 4.173000000000000000e+03 4.202000000000000000e+03 4.231000000000000000e+03 4.261000000000000000e+03 4.276000000000000000e+03 4.306000000000000000e+03
5.081000000000000000e+03 5.018000000000000000e+03 4.997000000000000000e+03 4.956000000000000000e+03 4.936000000000000000e+03 4.896000000000000000e+03 4.896000000000000000e+03 4.916000000000000000e+03 4.916000000000000000e+03 4.916000000000000000e+03 4.936000000000000000e+03 4.956000000000000000e+03 4.956000000000000000e+03 4.977000000000000000e+03 4.977000000000000000e+03 4.997000000000000000e+03 5.018000000000000000e+03 5.039000000000000000e+03 5.039000000000000000e+03 5.060000000000000000e+03 5.081000000000000000e+03 5.102000000000000000e+03 5.124000000000000000e+03 5.145000000000000000e+03 5.167000000000000000e+03 5.212000000000000000e+03 5.234000000000000000e+03 5.257000000000000000e+03 5.279000000000000000e+03 5.303000000000000000e+03 5.326000000000000000e+03 5.326000000000000000e+03 5.326000000000000000e+03 5.326000000000000000e+03 5.303000000000000000e+03 5.279000000000000000e+03 5.257000000000000000e+03 5.212000000000000000e+03 5.167000000000000000e+03 5.102000000000000000e+03 5.018000000000000000e+03 4.916000000000000000e+03 4.838000000000000000e+03 4.762000000000000000e+03 4.707000000000000000e+03 4.635000000000000000e+03 4.548000000000000000e+03 4.514000000000000000e+03 4.481000000000000000e+03 4.448000000000000000e+03 4.384000000000000000e+03 4.400000000000000000e+03 4.368000000000000000e+03 4.337000000000000000e+03 4.306000000000000000e+03 4.276000000000000000e+03 4.261000000000000000e+03 4.261000000000000000e+03 4.261000000000000000e+03 4.246000000000000000e+03 4.202000000000000000e+03 4.187000000000000000e+03 4.202000000000000000e+03 4.202000000000000000e+03 4.202000000000000000e+03 4.202000000000000000e+03 4.187000000000000000e+03 4.187000000000000000e+03 4.202000000000000000e+03 4.216000000000000000e+03 4.231000000000000000e+03 4.246000000000000000e+03 4.261000000000000000e+03 4.261000000000000000e+03 4.276000000000000000e+03 4.276000000000000000e+03 4.276000000000000000e+03 4.261000000000000000e+03 4.246000000000000000e+03 4.231000000000000000e+03 4.216000000000000000e+03 4.187000000000000000e+03 4.173000000000000000e+03 4.173000000000000000e+03 4.159000000000000000e+03 4.159000000000000000e+03 4.159000000000000000e+03 4.159000000000000000e+03 4.144000000000000000e+03 4.144000000000000000e+03 4.144000000000000000e+03 4.144000000000000000e+03 4.144000000000000000e+03 4.144000000000000000e+03 4.130000000000000000e+03 4.130000000000000000e+03 4.130000000000000000e+03 4.130000000000000000e+03 4.130000000000000000e+03 4.130000000000000000e+03 4.130000000000000000e+03 4.130000000000000000e+03 4.116000000000000000e+03 4.116000000000000000e+03 4.116000000000000000e+03 4.116000000000000000e+03 4.102000000000000000e+03 4.102000000000000000e+03 4.102000000000000000e+03 4.116000000000000000e+03 4.130000000000000000e+03 4.144000000000000000e+03 4.144000000000000000e+03 4.159000000000000000e+03 4.173000000000000000e+03 4.202000000000000000e+03 4.231000000000000000e+03 4.246000000000000000e+03 4.246000000000000000e+03
5.081000000000000000e+03 5.060000000000000000e+03 5.018000000000000000e+03 4.977000000000000000e+03 4.936000000000000000e+03 4.896000000000000000e+03 4.896000000000000000e+03 4.877000000000000000e+03 4.877000000000000000e+03 4.896000000000000000e+03 4.916000000000000000e+03 4.916000000000000000e+03 4.916000000000000000e+03 4.936000000000000000e+03 4.956000000000000000e+03 4.956000000000000000e+03 4.997000000000000000e+03 4.997000000000000000e+03 5.018000000000000000e+03 5.039000000000000000e+03 5.060000000000000000e+03 5.081000000000000000e+03 5.124000000000000000e+03 5.167000000000000000e+03 5.189000000000000000e+03 5.234000000000000000e+03 5.279000000000000000e+03 5.326000000000000000e+03 5.326000000000000000e+03 5.349000000000000000e+03 5.373000000000000000e+03 5.373000000000000000e+03 5.373000000000000000e+03 5.349000000000000000e+03 5.349000000000000000e+03 5.326000000000000000e+03 5.303000000000000000e+03 5.234000000000000000e+03 5.167000000000000000e+03 5.102000000000000000e+03 5.018000000000000000e+03 4.916000000000000000e+03 4.819000000000000000e+03 4.762000000000000000e+03 4.707000000000000000e+03 4.617000000000000000e+03 4.548000000000000000e+03 4.497000000000000000e+03 4.481000000000000000e+03 4.416000000000000000e+03 4.368000000000000000e+03 4.384000000000000000e+03 4.352000000000000000e+03 4.321000000000000000e+03 4.306000000000000000e+03 4.276000000000000000e+03 4.261000000000000000e+03 4.246000000000000000e+03 4.261000000000000000e+03 4.246000000000000000e+03 4.202000000000000000e+03 4.187000000000000000e+03 4.187000000000000000e+03 4.202000000000000000e+03 4.202000000000000000e+03 4.202000000000000000e+03 4.187000000000000000e+03 4.187000000000000000e+03 4.202000000000000000e+03 4.216000000000000000e+03 4.231000000000000000e+03 4.231000000000000000e+03 4.246000000000000000e+03 4.246000000000000000e+03 4.261000000000000000e+03 4.261000000000000000e+03 4.261000000000000000e+03 4.246000000000000000e+03 4.231000000000000000e+03 4.216000000000000000e+03 4.202000000000000000e+03 4.187000000000000000e+03 4.173000000000000000e+03 4.173000000000000000e+03 4.159000000000000000e+03 4.159000000000000000e+03 4.159000000000000000e+03 4.159000000000000000e+03 4.159000000000000000e+03 4.144000000000000000e+03 4.144000000000000000e+03 4.144000000000000000e+03 4.144000000000000000e+03 4.144000000000000000e+03 4.144000000000000000e+03 4.130000000000000000e+03 4.130000000000000000e+03 4.130000000000000000e+03 4.130000000000000000e+03 4.130000000000000000e+03 4.130000000000000000e+03 4.116000000000000000e+03 4.116000000000000000e+03 4.116000000000000000e+03 4.116000000000000000e+03 4.102000000000000000e+03 4.102000000000000000e+03 4.102000000000000000e+03 4.102000000000000000e+03 4.102000000000000000e+03 4.116000000000000000e+03 4.130000000000000000e+03 4.130000000000000000e+03 4.144000000000000000e+03 4.159000000000000000e+03 4.173000000000000000e+03 4.187000000000000000e+03 4.187000000000000000e+03 4.187000000000000000e+03
5.102000000000000000e+03 5.060000000000000000e+03 5.018000000000000000e+03 4.977000000000000000e+03 4.916000000000000000e+03 4.877000000000000000e+03 4.877000000000000000e+03 4.857000000000000000e+03 4.857000000000000000e+03 4.857000000000000000e+03 4.877000000000000000e+03 4.877000000000000000e+03 4.877000000000000000e+03 4.896000000000000000e+03 4.916000000000000000e+03 4.936000000000000000e+03 4.956000000000000000e+03 4.956000000000000000e+03 4.997000000000000000e+03 5.018000000000000000e+03 5.039000000000000000e+03 5.060000000000000000e+03 5.102000000000000000e+03 5.145000000000000000e+03 5.189000000000000000e+03 5.234000000000000000e+03 5.279000000000000000e+03 5.326000000000000000e+03 5.349000000000000000e+03 5.373000000000000000e+03 5.373000000000000000e+03 5.373000000000000000e+03 5.373000000000000000e+03 5.373000000000000000e+03 5.373000000000000000e+03 5.349000000000000000e+03 5.303000000000000000e+03 5.257000000000000000e+03 5.167000000000000000e+03 5.102000000000000000e+03 5.018000000000000000e+03 4.916000000000000000e+03 4.838000000000000000e+03 4.743000000000000000e+03 4.688000000000000000e+03 4.617000000000000000e+03 4.565000000000000000e+03 4.481000000000000000e+03 4.448000000000000000e+03 4.400000000000000000e+03 4.352000000000000000e+03 4.368000000000000000e+03 4.352000000000000000e+03 4.321000000000000000e+03 4.291000000000000000e+03 4.276000000000000000e+03 4.261000000000000000e+03 4.246000000000000000e+03 4.261000000000000000e+03 4.246000000000000000e+03 4.202000000000000000e+03 4.187000000000000000e+03 4.187000000000000000e+03 4.202000000000000000e+03 4.202000000000000000e+03 4.202000000000000000e+03 4.187000000000000000e+03 4.187000000000000000e+03 4.202000000000000000e+03 4.216000000000000000e+03 4.216000000000000000e+03 4.216000000000000000e+03 4.231000000000000000e+03 4.216000000000000000e+03 4.231000000000000000e+03 4.231000000000000000e+03 4.231000000000000000e+03 4.216000000000000000e+03 4.202000000000000000e+03 4.202000000000000000e+03 4.187000000000000000e+03 4.187000000000000000e+03 4.173000000000000000e+03 4.173000000000000000e+03 4.173000000000000000e+03 4.159000000000000000e+03 4.159000000000000000e+03 4.159000000000000000e+03 4.159000000000000000e+03 4.159000000000000000e+03 4.144000000000000000e+03 4.144000000000000000e+03 4.144000000000000000e+03 4.144000000000000000e+03 4.144000000000000000e+03 4.130000000000000000e+03 4.130000000000000000e+03 4.130000000000000000e+03 4.130000000000000000e+03 4.130000000000000000e+03 4.130000000000000000e+03 4.116000000000000000e+03 4.116000000000000000e+03 4.116000000000000000e+03 4.102000000000000000e+03 4.102000000000000000e+03 4.102000000000000000e+03 4.102000000000000000e+03 4.102000000000000000e+03 4.102000000000000000e+03 4.116000000000000000e+03 4.116000000000000000e+03 4.130000000000000000e+03 4.144000000000000000e+03 4.144000000000000000e+03 4.144000000000000000e+03 4.144000000000000000e+03 4.144000000000000000e+03 4.144000000000000000e+03
5.081000000000000000e+03 5.060000000000000000e+03 5.039000000000000000e+03 4.977000000000000000e+03 4.916000000000000000e+03 4.877000000000000000e+03 4.857000000000000000e+03 4.838000000000000000e+03 4.819000000000000000e+03 4.838000000000000000e+03 4.838000000000000000e+03 4.838000000000000000e+03 4.857000000000000000e+03 4.857000000000000000e+03 4.877000000000000000e+03 4.896000000000000000e+03 4.916000000000000000e+03 4.936000000000000000e+03 4.956000000000000000e+03 4.997000000000000000e+03 5.018000000000000000e+03 5.039000000000000000e+03 5.081000000000000000e+03 5.124000000000000000e+03 5.167000000000000000e+03 5.212000000000000000e+03 5.257000000000000000e+03 5.303000000000000000e+03 5.326000000000000000e+03 5.373000000000000000e+03 5.373000000000000000e+03 5.373000000000000000e+03 5.373000000000000000e+03 5.373000000000000000e+03 5.373000000000000000e+03 5.349000000000000000e+03 5.326000000000000000e+03 5.257000000000000000e+03 5.167000000000000000e+03 5.081000000000000000e+03 4.997000000000000000e+03 4.877000000000000000e+03 4.800000000000000000e+03 4.725000000000000000e+03 4.652000000000000000e+03 4.600000000000000000e+03 4.531000000000000000e+03 4.481000000000000000e+03 4.416000000000000000e+03 4.368000000000000000e+03 4.352000000000000000e+03 4.368000000000000000e+03 4.337000000000000000e+03 4.321000000000000000e+03 4.291000000000000000e+03 4.261000000000000000e+03 4.261000000000000000e+03 4.261000000000000000e+03 4.261000000000000000e+03 4.246000000000000000e+03 4.202000000000000000e+03 4.187000000000000000e+03 4.202000000000000000e+03 4.202000000000000000e+03 4.216000000000000000e+03 4.202000000000000000e+03 4.187000000000000000e+03 4.187000000000000000e+03 4.202000000000000000e+03 4.216000000000000000e+03 4.216000000000000000e+03 4.216000000000000000e+03 4.216000000000000000e+03 4.202000000000000000e+03 4.202000000000000000e+03 4.202000000000000000e+03 4.202000000000000000e+03 4.187000000000000000e+03 4.173000000000000000e+03 4.173000000000000000e+03 4.173000000000000000e+03 4.159000000000000000e+03 4.159000000000000000e+03 4.173000000000000000e+03 4.173000000000000000e+03 4.159000000000000000e+03 4.159000000000000000e+03 4.159000000000000000e+03 4.159000000000000000e+03 4.159000000000000000e+03 4.159000000000000000e+03 4.159000000000000000e+03 4.159000000000000000e+03 4.144000000000000000e+03 4.144000000000000000e+03 4.144000000000000000e+03 4.130000000000000000e+03 4.130000000000000000e+03 4.130000000000000000e+03 4.130000000000000000e+03 4.130000000000000000e+03 4.116000000000000000e+03 4.116000000000000000e+03 4.102000000000000000e+03 4.102000000000000000e+03 4.102000000000000000e+03 4.102000000000000000e+03 4.102000000000000000e+03 4.102000000000000000e+03 4.102000000000000000e+03 4.116000000000000000e+03 4.116000000000000000e+03 4.116000000000000000e+03 4.130000000000000000e+03 4.116000000000000000e+03 4.116000000000000000e+03 4.116000000000000000e+03 4.102000000000000000e+03 4.088000000000000000e+03
5.060000000000000000e+03 5.039000000000000000e+03 5.018000000000000000e+03 4.977000000000000000e+03 4.916000000000000000e+03 4.857000000000000000e+03 4.819000000000000000e+03 4.819000000000000000e+03 4.800000000000000000e+03 4.800000000000000000e+03 4.819000000000000000e+03 4.819000000000000000e+03 4.819000000000000000e+03 4.819000000000000000e+03 4.838000000000000000e+03 4.857000000000000000e+03 4.877000000000000000e+03 4.896000000000000000e+03 4.916000000000000000e+03 4.956000000000000000e+03 4.977000000000000000e+03 4.997000000000000000e+03 5.060000000000000000e+03 5.102000000000000000e+03 5.145000000000000000e+03 5.189000000000000000e+03 5.212000000000000000e+03 5.257000000000000000e+03 5.303000000000000000e+03 5.326000000000000000e+03 5.349000000000000000e+03 5.373000000000000000e+03 5.373000000000000000e+03 5.349000000000000000e+03 5.349000000000000000e+03 5.326000000000000000e+03 5.279000000000000000e+03 5.234000000000000000e+03 5.167000000000000000e+03 5.081000000000000000e+03 4.977000000000000000e+03 4.877000000000000000e+03 4.800000000000000000e+03 4.707000000000000000e+03 4.635000000000000000e+03 4.582000000000000000e+03 4.531000000000000000e+03 4.464000000000000000e+03 4.400000000000000000e+03 4.368000000000000000e+03 4.352000000000000000e+03 4.352000000000000000e+03 4.352000000000000000e+03 4.321000000000000000e+03 4.306000000000000000e+03 4.291000000000000000e+03 4.261000000000000000e+03 4.276000000000000000e+03 4.261000000000000000e+03 4.261000000000000000e+03 4.216000000000000000e+03 4.202000000000000000e+03 4.202000000000000000e+03 4.216000000000000000e+03 4.216000000000000000e+03 4.202000000000000000e+03 4.202000000000000000e+03 4.187000000000000000e+03 4.202000000000000000e+03 4.202000000000000000e+03 4.202000000000000000e+03 4.187000000000000000e+03 4.187000000000000000e+03 4.173000000000000000e+03 4.173000000000000000e+03 4.173000000000000000e+03 4.173000000000000000e+03 4.159000000000000000e+03 4.159000000000000000e+03 4.159000000000000000e+03 4.159000000000000000e+03 4.159000000000000000e+03 4.159000000000000000e+03 4.173000000000000000e+03 4.173000000000000000e+03 4.173000000000000000e+03 4.173000000000000000e+03 4.173000000000000000e+03 4.173000000000000000e+03 4.173000000000000000e+03 4.159000000000000000e+03 4.159000000000000000e+03 4.159000000000000000e+03 4.159000000000000000e+03 4.144000000000000000e+03 4.144000000000000000e+03 4.130000000000000000e+03 4.130000000000000000e+03 4.130000000000000000e+03 4.130000000000000000e+03 4.130000000000000000e+03 4.116000000000000000e+03 4.116000000000000000e+03 4.102000000000000000e+03 4.102000000000000000e+03 4.102000000000000000e+03 4.102000000000000000e+03 4.102000000000000000e+03 4.102000000000000000e+03 4.088000000000000000e+03 4.102000000000000000e+03 4.116000000000000000e+03 4.116000000000000000e+03 4.116000000000000000e+03 4.116000000000000000e+03 4.102000000000000000e+03 4.088000000000000000e+03 4.075000000000000000e+03 4.061000000000000000e+03
5.039000000000000000e+03 5.018000000000000000e+03 4.977000000000000000e+03 4.956000000000000000e+03 4.896000000000000000e+03 4.838000000000000000e+03 4.800000000000000000e+03 4.781000000000000000e+03 4.781000000000000000e+03 4.781000000000000000e+03 4.781000000000000000e+03 4.781000000000000000e+03 4.781000000000000000e+03 4.800000000000000000e+03 4.800000000000000000e+03 4.819000000000000000e+03 4.838000000000000000e+03 4.857000000000000000e+03 4.877000000000000000e+03 4.916000000000000000e+03 4.956000000000000000e+03 4.977000000000000000e+03 5.018000000000000000e+03 5.060000000000000000e+03 5.102000000000000000e+03 5.145000000000000000e+03 5.189000000000000000e+03 5.212000000000000000e+03 5.257000000000000000e+03 5.279000000000000000e+03 5.303000000000000000e+03 5.326000000000000000e+03 5.326000000000000000e+03 5.326000000000000000e+03 5.326000000000000000e+03 5.279000000000000000e+03 5.257000000000000000e+03 5.234000000000000000e+03 5.145000000000000000e+03 5.060000000000000000e+03 4.977000000000000000e+03 4.857000000000000000e+03 4.781000000000000000e+03 4.688000000000000000e+03 4.617000000000000000e+03 4.582000000000000000e+03 4.531000000000000000e+03 4.464000000000000000e+03 4.400000000000000000e+03 4.368000000000000000e+03 4.352000000000000000e+03 4.368000000000000000e+03 4.352000000000000000e+03 4.321000000000000000e+03 4.306000000000000000e+03 4.291000000000000000e+03 4.276000000000000000e+03 4.276000000000000000e+03 4.276000000000000000e+03 4.276000000000000000e+03 4.231000000000000000e+03 4.216000000000000000e+03 4.202000000000000000e+03 4.216000000000000000e+03 4.231000000000000000e+03 4.216000000000000000e+03 4.202000000000000000e+03 4.202000000000000000e+03 4.187000000000000000e+03 4.202000000000000000e+03 4.187000000000000000e+03 4.173000000000000000e+03 4.159000000000000000e+03 4.144000000000000000e+03 4.130000000000000000e+03 4.130000000000000000e+03 4.130000000000000000e+03 4.130000000000000000e+03 4.130000000000000000e+03 4.144000000000000000e+03 4.144000000000000000e+03 4.159000000000000000e+03 4.159000000000000000e+03 4.173000000000000000e+03 4.173000000000000000e+03 4.173000000000000000e+03 4.173000000000000000e+03 4.173000000000000000e+03 4.173000000000000000e+03 4.173000000000000000e+03 4.173000000000000000e+03 4.173000000000000000e+03 4.159000000000000000e+03 4.159000000000000000e+03 4.159000000000000000e+03 4.144000000000000000e+03 4.144000000000000000e+03 4.130000000000000000e+03 4.130000000000000000e+03 4.130000000000000000e+03 4.130000000000000000e+03 4.116000000000000000e+03 4.116000000000000000e+03 4.102000000000000000e+03 4.102000000000000000e+03 4.102000000000000000e+03 4.102000000000000000e+03 4.088000000000000000e+03 4.088000000000000000e+03 4.088000000000000000e+03 4.102000000000000000e+03 4.102000000000000000e+03 4.102000000000000000e+03 4.102000000000000000e+03 4.088000000000000000e+03 4.075000000000000000e+03 4.061000000000000000e+03 4.048000000000000000e+03 4.021000000000000000e+03
4.997000000000000000e+03 4.956000000000000000e+03 4.956000000000000000e+03 4.916000000000000000e+03 4.857000000000000000e+03 4.800000000000000000e+03 4.762000000000000000e+03 4.743000000000000000e+03 4.743000000000000000e+03 4.743000000000000000e+03 4.743000000000000000e+03 4.743000000000000000e+03 4.743000000000000000e+03 4.743000000000000000e+03 4.762000000000000000e+03 4.800000000000000000e+03 4.800000000000000000e+03 4.819000000000000000e+03 4.838000000000000000e+03 4.877000000000000000e+03 4.916000000000000000e+03 4.936000000000000000e+03 4.956000000000000000e+03 5.018000000000000000e+03 5.039000000000000000e+03 5.081000000000000000e+03 5.124000000000000000e+03 5.189000000000000000e+03 5.212000000000000000e+03 5.234000000000000000e+03 5.257000000000000000e+03 5.257000000000000000e+03 5.279000000000000000e+03 5.279000000000000000e+03 5.279000000000000000e+03 5.257000000000000000e+03 5.234000000000000000e+03 5.189000000000000000e+03 5.102000000000000000e+03 5.018000000000000000e+03 4.956000000000000000e+03 4.857000000000000000e+03 4.762000000000000000e+03 4.688000000000000000e+03 4.617000000000000000e+03 4.582000000000000000e+03 4.531000000000000000e+03 4.464000000000000000e+03 4.416000000000000000e+03 4.384000000000000000e+03 4.368000000000000000e+03 4.384000000000000000e+03 4.368000000000000000e+03 4.337000000000000000e+03 4.321000000000000000e+03 4.306000000000000000e+03 4.306000000000000000e+03 4.291000000000000000e+03 4.291000000000000000e+03 4.276000000000000000e+03 4.246000000000000000e+03 4.231000000000000000e+03 4.216000000000000000e+03 4.216000000000000000e+03 4.231000000000000000e+03 4.216000000000000000e+03 4.202000000000000000e+03 4.202000000000000000e+03 4.187000000000000000e+03 4.187000000000000000e+03 4.173000000000000000e+03 4.159000000000000000e+03 4.144000000000000000e+03 4.116000000000000000e+03 4.116000000000000000e+03 4.102000000000000000e+03 4.102000000000000000e+03 4.102000000000000000e+03 4.116000000000000000e+03 4.130000000000000000e+03 4.144000000000000000e+03 4.144000000000000000e+03 4.159000000000000000e+03 4.173000000000000000e+03 4.173000000000000000e+03 4.173000000000000000e+03 4.187000000000000000e+03 4.187000000000000000e+03 4.173000000000000000e+03 4.173000000000000000e+03 4.173000000000000000e+03 4.173000000000000000e+03 4.173000000000000000e+03 4.159000000000000000e+03 4.159000000000000000e+03 4.144000000000000000e+03 4.144000000000000000e+03 4.130000000000000000e+03 4.130000000000000000e+03 4.130000000000000000e+03 4.130000000000000000e+03 4.116000000000000000e+03 4.116000000000000000e+03 4.102000000000000000e+03 4.102000000000000000e+03 4.102000000000000000e+03 4.088000000000000000e+03 4.088000000000000000e+03 4.088000000000000000e+03 4.088000000000000000e+03 4.088000000000000000e+03 4.088000000000000000e+03 4.088000000000000000e+03 4.088000000000000000e+03 4.075000000000000000e+03 4.061000000000000000e+03 4.034000000000000000e+03 4.008000000000000000e+03 3.994000000000000000e+03
4.956000000000000000e+03 4.936000000000000000e+03 4.916000000000000000e+03 4.896000000000000000e+03 4.819000000000000000e+03 4.762000000000000000e+03 4.743000000000000000e+03 4.725000000000000000e+03 4.707000000000000000e+03 4.707000000000000000e+03 4.707000000000000000e+03 4.707000000000000000e+03 4.725000000000000000e+03 4.725000000000000000e+03 4.743000000000000000e+03 4.762000000000000000e+03 4.762000000000000000e+03 4.781000000000000000e+03 4.819000000000000000e+03 4.838000000000000000e+03 4.857000000000000000e+03 4.896000000000000000e+03 4.936000000000000000e+03 4.977000000000000000e+03 4.997000000000000000e+03 5.039000000000000000e+03 5.081000000000000000e+03 5.124000000000000000e+03 5.145000000000000000e+03 5.167000000000000000e+03 5.189000000000000000e+03 5.189000000000000000e+03 5.212000000000000000e+03 5.212000000000000000e+03 5.234000000000000000e+03 5.234000000000000000e+03 5.189000000000000000e+03 5.145000000000000000e+03 5.081000000000000000e+03 5.018000000000000000e+03 4.916000000000000000e+03 4.819000000000000000e+03 4.762000000000000000e+03 4.688000000000000000e+03 4.617000000000000000e+03 4.582000000000000000e+03 4.548000000000000000e+03 4.481000000000000000e+03 4.416000000000000000e+03 4.400000000000000000e+03 4.400000000000000000e+03 4.416000000000000000e+03 4.384000000000000000e+03 4.352000000000000000e+03 4.337000000000000000e+03 4.321000000000000000e+03 4.321000000000000000e+03 4.306000000000000000e+03 4.306000000000000000e+03 4.291000000000000000e+03 4.246000000000000000e+03 4.231000000000000000e+03 4.231000000000000000e+03 4.246000000000000000e+03 4.231000000000000000e+03 4.231000000000000000e+03 4.216000000000000000e+03 4.202000000000000000e+03 4.187000000000000000e+03 4.187000000000000000e+03 4.173000000000000000e+03 4.159000000000000000e+03 4.144000000000000000e+03 4.116000000000000000e+03 4.102000000000000000e+03 4.102000000000000000e+03 4.102000000000000000e+03 4.088000000000000000e+03 4.102000000000000000e+03 4.116000000000000000e+03 4.130000000000000000e+03 4.144000000000000000e+03 4.159000000000000000e+03 4.173000000000000000e+03 4.173000000000000000e+03 4.187000000000000000e+03 4.187000000000000000e+03 4.187000000000000000e+03 4.187000000000000000e+03 4.187000000000000000e+03 4.173000000000000000e+03 4.173000000000000000e+03 4.173000000000000000e+03 4.159000000000000000e+03 4.159000000000000000e+03 4.159000000000000000e+03 4.144000000000000000e+03 4.130000000000000000e+03 4.130000000000000000e+03 4.130000000000000000e+03 4.130000000000000000e+03 4.116000000000000000e+03 4.116000000000000000e+03 4.116000000000000000e+03 4.102000000000000000e+03 4.102000000000000000e+03 4.102000000000000000e+03 4.102000000000000000e+03 4.088000000000000000e+03 4.088000000000000000e+03 4.088000000000000000e+03 4.088000000000000000e+03 4.088000000000000000e+03 4.075000000000000000e+03 4.061000000000000000e+03 4.034000000000000000e+03 4.008000000000000000e+03 3.981000000000000000e+03 3.968000000000000000e+03
4.916000000000000000e+03 4.896000000000000000e+03 4.877000000000000000e+03 4.857000000000000000e+03 4.800000000000000000e+03 4.743000000000000000e+03 4.725000000000000000e+03 4.707000000000000000e+03 4.707000000000000000e+03 4.688000000000000000e+03 4.707000000000000000e+03 4.688000000000000000e+03 4.707000000000000000e+03 4.707000000000000000e+03 4.725000000000000000e+03 4.743000000000000000e+03 4.762000000000000000e+03 4.781000000000000000e+03 4.800000000000000000e+03 4.819000000000000000e+03 4.857000000000000000e+03 4.877000000000000000e+03 4.896000000000000000e+03 4.936000000000000000e+03 4.956000000000000000e+03 4.997000000000000000e+03 5.018000000000000000e+03 5.039000000000000000e+03 5.081000000000000000e+03 5.102000000000000000e+03 5.124000000000000000e+03 5.124000000000000000e+03 5.145000000000000000e+03 5.167000000000000000e+03 5.145000000000000000e+03 5.145000000000000000e+03 5.102000000000000000e+03 5.081000000000000000e+03 5.039000000000000000e+03 4.977000000000000000e+03 4.916000000000000000e+03 4.819000000000000000e+03 4.743000000000000000e+03 4.670000000000000000e+03 4.635000000000000000e+03 4.600000000000000000e+03 4.548000000000000000e+03 4.497000000000000000e+03 4.448000000000000000e+03 4.416000000000000000e+03 4.432000000000000000e+03 4.432000000000000000e+03 4.416000000000000000e+03 4.384000000000000000e+03 4.368000000000000000e+03 4.352000000000000000e+03 4.337000000000000000e+03 4.337000000000000000e+03 4.321000000000000000e+03 4.306000000000000000e+03 4.276000000000000000e+03 4.261000000000000000e+03 4.246000000000000000e+03 4.246000000000000000e+03 4.246000000000000000e+03 4.231000000000000000e+03 4.216000000000000000e+03 4.216000000000000000e+03 4.202000000000000000e+03 4.187000000000000000e+03 4.173000000000000000e+03 4.159000000000000000e+03 4.144000000000000000e+03 4.116000000000000000e+03 4.102000000000000000e+03 4.102000000000000000e+03 4.102000000000000000e+03 4.102000000000000000e+03 4.102000000000000000e+03 4.116000000000000000e+03 4.130000000000000000e+03 4.144000000000000000e+03 4.159000000000000000e+03 4.173000000000000000e+03 4.187000000000000000e+03 4.187000000000000000e+03 4.187000000000000000e+03 4.187000000000000000e+03 4.187000000000000000e+03 4.187000000000000000e+03 4.187000000000000000e+03 4.173000000000000000e+03 4.173000000000000000e+03 4.173000000000000000e+03 4.159000000000000000e+03 4.159000000000000000e+03 4.144000000000000000e+03 4.144000000000000000e+03 4.130000000000000000e+03 4.130000000000000000e+03 4.130000000000000000e+03 4.116000000000000000e+03 4.116000000000000000e+03 4.116000000000000000e+03 4.102000000000000000e+03 4.102000000000000000e+03 4.102000000000000000e+03 4.102000000000000000e+03 4.088000000000000000e+03 4.088000000000000000e+03 4.075000000000000000e+03 4.075000000000000000e+03 4.075000000000000000e+03 4.048000000000000000e+03 4.034000000000000000e+03 4.008000000000000000e+03 3.981000000000000000e+03 3.968000000000000000e+03 3.942000000000000000e+03
4.857000000000000000e+03 4.857000000000000000e+03 4.857000000000000000e+03 4.838000000000000000e+03 4.762000000000000000e+03 4.725000000000000000e+03 4.707000000000000000e+03 4.688000000000000000e+03 4.688000000000000000e+03 4.670000000000000000e+03 4.670000000000000000e+03 4.670000000000000000e+03 4.688000000000000000e+03 4.688000000000000000e+03 4.707000000000000000e+03 4.725000000000000000e+03 4.743000000000000000e+03 4.762000000000000000e+03 4.781000000000000000e+03 4.800000000000000000e+03 4.819000000000000000e+03 4.838000000000000000e+03 4.857000000000000000e+03 4.896000000000000000e+03 4.916000000000000000e+03 4.936000000000000000e+03 4.956000000000000000e+03 4.977000000000000000e+03 4.997000000000000000e+03 5.018000000000000000e+03 5.039000000000000000e+03 5.060000000000000000e+03 5.060000000000000000e+03 5.081000000000000000e+03 5.081000000000000000e+03 5.081000000000000000e+03 5.060000000000000000e+03 5.039000000000000000e+03 4.997000000000000000e+03 4.936000000000000000e+03 4.877000000000000000e+03 4.800000000000000000e+03 4.743000000000000000e+03 4.670000000000000000e+03 4.635000000000000000e+03 4.600000000000000000e+03 4.565000000000000000e+03 4.531000000000000000e+03 4.464000000000000000e+03 4.448000000000000000e+03 4.448000000000000000e+03 4.448000000000000000e+03 4.432000000000000000e+03 4.400000000000000000e+03 4.384000000000000000e+03 4.368000000000000000e+03 4.352000000000000000e+03 4.337000000000000000e+03 4.337000000000000000e+03 4.321000000000000000e+03 4.276000000000000000e+03 4.261000000000000000e+03 4.246000000000000000e+03 4.261000000000000000e+03 4.246000000000000000e+03 4.246000000000000000e+03 4.216000000000000000e+03 4.216000000000000000e+03 4.202000000000000000e+03 4.202000000000000000e+03 4.187000000000000000e+03 4.173000000000000000e+03 4.159000000000000000e+03 4.130000000000000000e+03 4.116000000000000000e+03 4.116000000000000000e+03 4.102000000000000000e+03 4.102000000000000000e+03 4.116000000000000000e+03 4.116000000000000000e+03 4.144000000000000000e+03 4.159000000000000000e+03 4.159000000000000000e+03 4.173000000000000000e+03 4.187000000000000000e+03 4.187000000000000000e+03 4.187000000000000000e+03 4.187000000000000000e+03 4.187000000000000000e+03 4.187000000000000000e+03 4.187000000000000000e+03 4.187000000000000000e+03 4.173000000000000000e+03 4.173000000000000000e+03 4.159000000000000000e+03 4.159000000000000000e+03 4.159000000000000000e+03 4.144000000000000000e+03 4.130000000000000000e+03 4.130000000000000000e+03 4.130000000000000000e+03 4.116000000000000000e+03 4.116000000000000000e+03 4.116000000000000000e+03 4.102000000000000000e+03 4.102000000000000000e+03 4.102000000000000000e+03 4.088000000000000000e+03 4.088000000000000000e+03 4.075000000000000000e+03 4.061000000000000000e+03 4.061000000000000000e+03 4.048000000000000000e+03 4.034000000000000000e+03 4.008000000000000000e+03 3.994000000000000000e+03 3.968000000000000000e+03 3.942000000000000000e+03 3.917000000000000000e+03
4.819000000000000000e+03 4.819000000000000000e+03 4.819000000000000000e+03 4.781000000000000000e+03 4.743000000000000000e+03 4.707000000000000000e+03 4.688000000000000000e+03 4.688000000000000000e+03 4.670000000000000000e+03 4.670000000000000000e+03 4.670000000000000000e+03 4.670000000000000000e+03 4.688000000000000000e+03 4.688000000000000000e+03 4.707000000000000000e+03 4.725000000000000000e+03 4.743000000000000000e+03 4.762000000000000000e+03 4.781000000000000000e+03 4.781000000000000000e+03 4.800000000000000000e+03 4.838000000000000000e+03 4.857000000000000000e+03 4.877000000000000000e+03 4.877000000000000000e+03 4.896000000000000000e+03 4.916000000000000000e+03 4.936000000000000000e+03 4.956000000000000000e+03 4.977000000000000000e+03 4.977000000000000000e+03 4.997000000000000000e+03 4.997000000000000000e+03 4.997000000000000000e+03 5.018000000000000000e+03 5.018000000000000000e+03 5.018000000000000000e+03 4.997000000000000000e+03 4.997000000000000000e+03 4.936000000000000000e+03 4.877000000000000000e+03 4.800000000000000000e+03 4.743000000000000000e+03 4.688000000000000000e+03 4.635000000000000000e+03 4.600000000000000000e+03 4.582000000000000000e+03 4.531000000000000000e+03 4.497000000000000000e+03 4.481000000000000000e+03 4.464000000000000000e+03 4.481000000000000000e+03 4.448000000000000000e+03 4.432000000000000000e+03 4.400000000000000000e+03 4.400000000000000000e+03 4.384000000000000000e+03 4.352000000000000000e+03 4.352000000000000000e+03 4.321000000000000000e+03 4.291000000000000000e+03 4.261000000000000000e+03 4.261000000000000000e+03 4.261000000000000000e+03 4.261000000000000000e+03 4.246000000000000000e+03 4.231000000000000000e+03 4.216000000000000000e+03 4.202000000000000000e+03 4.202000000000000000e+03 4.202000000000000000e+03 4.187000000000000000e+03 4.159000000000000000e+03 4.130000000000000000e+03 4.130000000000000000e+03 4.130000000000000000e+03 4.116000000000000000e+03 4.116000000000000000e+03 4.116000000000000000e+03 4.130000000000000000e+03 4.144000000000000000e+03 4.159000000000000000e+03 4.173000000000000000e+03 4.173000000000000000e+03 4.187000000000000000e+03 4.187000000000000000e+03 4.187000000000000000e+03 4.187000000000000000e+03 4.187000000000000000e+03 4.187000000000000000e+03 4.187000000000000000e+03 4.187000000000000000e+03 4.173000000000000000e+03 4.173000000000000000e+03 4.159000000000000000e+03 4.159000000000000000e+03 4.159000000000000000e+03 4.144000000000000000e+03 4.130000000000000000e+03 4.130000000000000000e+03 4.130000000000000000e+03 4.116000000000000000e+03 4.116000000000000000e+03 4.116000000000000000e+03 4.102000000000000000e+03 4.102000000000000000e+03 4.088000000000000000e+03 4.088000000000000000e+03 4.075000000000000000e+03 4.075000000000000000e+03 4.061000000000000000e+03 4.048000000000000000e+03 4.034000000000000000e+03 4.008000000000000000e+03 3.994000000000000000e+03 3.968000000000000000e+03 3.942000000000000000e+03 3.917000000000000000e+03 3.892000000000000000e+03
4.781000000000000000e+03 4.781000000000000000e+03 4.762000000000000000e+03 4.762000000000000000e+03 4.725000000000000000e+03 4.707000000000000000e+03 4.688000000000000000e+03 4.670000000000000000e+03 4.670000000000000000e+03 4.670000000000000000e+03 4.670000000000000000e+03 4.670000000000000000e+03 4.670000000000000000e+03 4.688000000000000000e+03 4.688000000000000000e+03 4.707000000000000000e+03 4.743000000000000000e+03 4.743000000000000000e+03 4.762000000000000000e+03 4.781000000000000000e+03 4.800000000000000000e+03 4.819000000000000000e+03 4.838000000000000000e+03 4.857000000000000000e+03 4.877000000000000000e+03 4.896000000000000000e+03 4.916000000000000000e+03 4.916000000000000000e+03 4.936000000000000000e+03 4.936000000000000000e+03 4.956000000000000000e+03 4.956000000000000000e+03 4.977000000000000000e+03 4.977000000000000000e+03 4.977000000000000000e+03 4.977000000000000000e+03 4.977000000000000000e+03 4.977000000000000000e+03 4.956000000000000000e+03 4.916000000000000000e+03 4.857000000000000000e+03 4.800000000000000000e+03 4.725000000000000000e+03 4.688000000000000000e+03 4.652000000000000000e+03 4.617000000000000000e+03 4.600000000000000000e+03 4.548000000000000000e+03 4.497000000000000000e+03 4.497000000000000000e+03 4.497000000000000000e+03 4.497000000000000000e+03 4.481000000000000000e+03 4.448000000000000000e+03 4.432000000000000000e+03 4.400000000000000000e+03 4.384000000000000000e+03 4.368000000000000000e+03 4.352000000000000000e+03 4.321000000000000000e+03 4.291000000000000000e+03 4.261000000000000000e+03 4.261000000000000000e+03 4.261000000000000000e+03 4.261000000000000000e+03 4.246000000000000000e+03 4.231000000000000000e+03 4.231000000000000000e+03 4.216000000000000000e+03 4.216000000000000000e+03 4.216000000000000000e+03 4.187000000000000000e+03 4.173000000000000000e+03 4.159000000000000000e+03 4.144000000000000000e+03 4.144000000000000000e+03 4.130000000000000000e+03 4.130000000000000000e+03 4.130000000000000000e+03 4.130000000000000000e+03 4.144000000000000000e+03 4.159000000000000000e+03 4.173000000000000000e+03 4.173000000000000000e+03 4.187000000000000000e+03 4.187000000000000000e+03 4.187000000000000000e+03 4.187000000000000000e+03 4.187000000000000000e+03 4.187000000000000000e+03 4.187000000000000000e+03 4.173000000000000000e+03 4.173000000000000000e+03 4.159000000000000000e+03 4.159000000000000000e+03 4.159000000000000000e+03 4.144000000000000000e+03 4.144000000000000000e+03 4.130000000000000000e+03 4.130000000000000000e+03 4.116000000000000000e+03 4.116000000000000000e+03 4.116000000000000000e+03 4.102000000000000000e+03 4.102000000000000000e+03 4.088000000000000000e+03 4.088000000000000000e+03 4.075000000000000000e+03 4.075000000000000000e+03 4.061000000000000000e+03 4.048000000000000000e+03 4.034000000000000000e+03 4.008000000000000000e+03 3.981000000000000000e+03 3.968000000000000000e+03 3.942000000000000000e+03 3.917000000000000000e+03 3.892000000000000000e+03 3.880000000000000000e+03
4.743000000000000000e+03 4.743000000000000000e+03 4.743000000000000000e+03 4.725000000000000000e+03 4.707000000000000000e+03 4.688000000000000000e+03 4.688000000000000000e+03 4.670000000000000000e+03 4.670000000000000000e+03 4.652000000000000000e+03 4.670000000000000000e+03 4.670000000000000000e+03 4.670000000000000000e+03 4.688000000000000000e+03 4.688000000000000000e+03 4.725000000000000000e+03 4.743000000000000000e+03 4.743000000000000000e+03 4.762000000000000000e+03 4.781000000000000000e+03 4.800000000000000000e+03 4.819000000000000000e+03 4.838000000000000000e+03 4.857000000000000000e+03 4.877000000000000000e+03 4.896000000000000000e+03 4.896000000000000000e+03 4.916000000000000000e+03 4.916000000000000000e+03 4.936000000000000000e+03 4.936000000000000000e+03 4.936000000000000000e+03 4.956000000000000000e+03 4.977000000000000000e+03 4.977000000000000000e+03 4.956000000000000000e+03 4.956000000000000000e+03 4.977000000000000000e+03 4.956000000000000000e+03 4.916000000000000000e+03 4.877000000000000000e+03 4.819000000000000000e+03 4.762000000000000000e+03 4.707000000000000000e+03 4.670000000000000000e+03 4.635000000000000000e+03 4.617000000000000000e+03 4.565000000000000000e+03 4.531000000000000000e+03 4.514000000000000000e+03 4.514000000000000000e+03 4.514000000000000000e+03 4.481000000000000000e+03 4.448000000000000000e+03 4.432000000000000000e+03 4.416000000000000000e+03 4.384000000000000000e+03 4.368000000000000000e+03 4.352000000000000000e+03 4.321000000000000000e+03 4.291000000000000000e+03 4.261000000000000000e+03 4.261000000000000000e+03 4.261000000000000000e+03 4.246000000000000000e+03 4.246000000000000000e+03 4.231000000000000000e+03 4.231000000000000000e+03 4.216000000000000000e+03 4.231000000000000000e+03 4.216000000000000000e+03 4.216000000000000000e+03 4.187000000000000000e+03 4.173000000000000000e+03 4.159000000000000000e+03 4.159000000000000000e+03 4.144000000000000000e+03 4.130000000000000000e+03 4.130000000000000000e+03 4.130000000000000000e+03 4.144000000000000000e+03 4.159000000000000000e+03 4.159000000000000000e+03 4.173000000000000000e+03 4.173000000000000000e+03 4.187000000000000000e+03 4.187000000000000000e+03 4.187000000000000000e+03 4.173000000000000000e+03 4.173000000000000000e+03 4.173000000000000000e+03 4.173000000000000000e+03 4.159000000000000000e+03 4.159000000000000000e+03 4.159000000000000000e+03 4.144000000000000000e+03 4.144000000000000000e+03 4.130000000000000000e+03 4.116000000000000000e+03 4.116000000000000000e+03 4.116000000000000000e+03 4.102000000000000000e+03 4.102000000000000000e+03 4.102000000000000000e+03 4.088000000000000000e+03 4.075000000000000000e+03 4.075000000000000000e+03 4.061000000000000000e+03 4.048000000000000000e+03 4.048000000000000000e+03 4.021000000000000000e+03 4.008000000000000000e+03 3.981000000000000000e+03 3.955000000000000000e+03 3.942000000000000000e+03 3.917000000000000000e+03 3.892000000000000000e+03 3.880000000000000000e+03 3.855000000000000000e+03
4.707000000000000000e+03 4.707000000000000000e+03 4.725000000000000000e+03 4.725000000000000000e+03 4.688000000000000000e+03 4.670000000000000000e+03 4.670000000000000000e+03 4.670000000000000000e+03 4.670000000000000000e+03 4.670000000000000000e+03 4.670000000000000000e+03 4.670000000000000000e+03 4.688000000000000000e+03 4.688000000000000000e+03 4.725000000000000000e+03 4.725000000000000000e+03 4.743000000000000000e+03 4.762000000000000000e+03 4.762000000000000000e+03 4.800000000000000000e+03 4.819000000000000000e+03 4.838000000000000000e+03 4.857000000000000000e+03 4.857000000000000000e+03 4.877000000000000000e+03 4.896000000000000000e+03 4.896000000000000000e+03 4.896000000000000000e+03 4.896000000000000000e+03 4.916000000000000000e+03 4.936000000000000000e+03 4.936000000000000000e+03 4.936000000000000000e+03 4.956000000000000000e+03 4.956000000000000000e+03 4.956000000000000000e+03 4.956000000000000000e+03 4.956000000000000000e+03 4.956000000000000000e+03 4.916000000000000000e+03 4.896000000000000000e+03 4.819000000000000000e+03 4.781000000000000000e+03 4.743000000000000000e+03 4.707000000000000000e+03 4.670000000000000000e+03 4.635000000000000000e+03 4.600000000000000000e+03 4.548000000000000000e+03 4.531000000000000000e+03 4.531000000000000000e+03 4.531000000000000000e+03 4.497000000000000000e+03 4.464000000000000000e+03 4.448000000000000000e+03 4.416000000000000000e+03 4.400000000000000000e+03 4.384000000000000000e+03 4.352000000000000000e+03 4.321000000000000000e+03 4.276000000000000000e+03 4.261000000000000000e+03 4.246000000000000000e+03 4.261000000000000000e+03 4.246000000000000000e+03 4.246000000000000000e+03 4.231000000000000000e+03 4.231000000000000000e+03 4.231000000000000000e+03 4.231000000000000000e+03 4.231000000000000000e+03 4.216000000000000000e+03 4.216000000000000000e+03 4.187000000000000000e+03 4.187000000000000000e+03 4.187000000000000000e+03 4.159000000000000000e+03 4.144000000000000000e+03 4.144000000000000000e+03 4.144000000000000000e+03 4.144000000000000000e+03 4.144000000000000000e+03 4.159000000000000000e+03 4.159000000000000000e+03 4.159000000000000000e+03 4.173000000000000000e+03 4.173000000000000000e+03 4.173000000000000000e+03 4.173000000000000000e+03 4.173000000000000000e+03 4.159000000000000000e+03 4.159000000000000000e+03 4.159000000000000000e+03 4.144000000000000000e+03 4.144000000000000000e+03 4.130000000000000000e+03 4.130000000000000000e+03 4.116000000000000000e+03 4.116000000000000000e+03 4.102000000000000000e+03 4.102000000000000000e+03 4.102000000000000000e+03 4.088000000000000000e+03 4.088000000000000000e+03 4.075000000000000000e+03 4.061000000000000000e+03 4.061000000000000000e+03 4.048000000000000000e+03 4.034000000000000000e+03 4.021000000000000000e+03 4.008000000000000000e+03 3.981000000000000000e+03 3.955000000000000000e+03 3.942000000000000000e+03 3.917000000000000000e+03 3.892000000000000000e+03 3.880000000000000000e+03 3.855000000000000000e+03 3.843000000000000000e+03
4.688000000000000000e+03 4.688000000000000000e+03 4.707000000000000000e+03 4.707000000000000000e+03 4.670000000000000000e+03 4.670000000000000000e+03 4.670000000000000000e+03 4.670000000000000000e+03 4.670000000000000000e+03 4.670000000000000000e+03 4.688000000000000000e+03 4.707000000000000000e+03 4.707000000000000000e+03 4.725000000000000000e+03 4.725000000000000000e+03 4.743000000000000000e+03 4.762000000000000000e+03 4.762000000000000000e+03 4.781000000000000000e+03 4.800000000000000000e+03 4.838000000000000000e+03 4.838000000000000000e+03 4.857000000000000000e+03 4.857000000000000000e+03 4.877000000000000000e+03 4.877000000000000000e+03 4.896000000000000000e+03 4.896000000000000000e+03 4.896000000000000000e+03 4.896000000000000000e+03 4.916000000000000000e+03 4.916000000000000000e+03 4.936000000000000000e+03 4.936000000000000000e+03 4.916000000000000000e+03 4.936000000000000000e+03 4.936000000000000000e+03 4.956000000000000000e+03 4.956000000000000000e+03 4.936000000000000000e+03 4.896000000000000000e+03 4.857000000000000000e+03 4.819000000000000000e+03 4.762000000000000000e+03 4.725000000000000000e+03 4.688000000000000000e+03 4.652000000000000000e+03 4.617000000000000000e+03 4.582000000000000000e+03 4.548000000000000000e+03 4.531000000000000000e+03 4.531000000000000000e+03 4.514000000000000000e+03 4.464000000000000000e+03 4.448000000000000000e+03 4.432000000000000000e+03 4.400000000000000000e+03 4.368000000000000000e+03 4.352000000000000000e+03 4.321000000000000000e+03 4.276000000000000000e+03 4.246000000000000000e+03 4.246000000000000000e+03 4.261000000000000000e+03 4.246000000000000000e+03 4.246000000000000000e+03 4.231000000000000000e+03 4.231000000000000000e+03 4.231000000000000000e+03 4.231000000000000000e+03 4.246000000000000000e+03 4.231000000000000000e+03 4.216000000000000000e+03 4.202000000000000000e+03 4.187000000000000000e+03 4.187000000000000000e+03 4.173000000000000000e+03 4.144000000000000000e+03 4.144000000000000000e+03 4.144000000000000000e+03 4.144000000000000000e+03 4.144000000000000000e+03 4.144000000000000000e+03 4.159000000000000000e+03 4.159000000000000000e+03 4.159000000000000000e+03 4.159000000000000000e+03 4.159000000000000000e+03 4.159000000000000000e+03 4.159000000000000000e+03 4.144000000000000000e+03 4.144000000000000000e+03 4.130000000000000000e+03 4.130000000000000000e+03 4.130000000000000000e+03 4.116000000000000000e+03 4.116000000000000000e+03 4.102000000000000000e+03 4.102000000000000000e+03 4.088000000000000000e+03 4.088000000000000000e+03 4.075000000000000000e+03 4.075000000000000000e+03 4.061000000000000000e+03 4.061000000000000000e+03 4.048000000000000000e+03 4.034000000000000000e+03 4.034000000000000000e+03 4.021000000000000000e+03 3.994000000000000000e+03 3.981000000000000000e+03 3.955000000000000000e+03 3.930000000000000000e+03 3.917000000000000000e+03 3.892000000000000000e+03 3.880000000000000000e+03 3.855000000000000000e+03 3.843000000000000000e+03 3.831000000000000000e+03
4.670000000000000000e+03 4.688000000000000000e+03 4.707000000000000000e+03 4.707000000000000000e+03 4.670000000000000000e+03 4.670000000000000000e+03 4.670000000000000000e+03 4.670000000000000000e+03 4.670000000000000000e+03 4.688000000000000000e+03 4.688000000000000000e+03 4.707000000000000000e+03 4.707000000000000000e+03 4.725000000000000000e+03 4.743000000000000000e+03 4.743000000000000000e+03 4.762000000000000000e+03 4.781000000000000000e+03 4.781000000000000000e+03 4.800000000000000000e+03 4.838000000000000000e+03 4.838000000000000000e+03 4.857000000000000000e+03 4.857000000000000000e+03 4.857000000000000000e+03 4.877000000000000000e+03 4.877000000000000000e+03 4.877000000000000000e+03 4.877000000000000000e+03 4.877000000000000000e+03 4.896000000000000000e+03 4.896000000000000000e+03 4.916000000000000000e+03 4.896000000000000000e+03 4.916000000000000000e+03 4.916000000000000000e+03 4.916000000000000000e+03 4.956000000000000000e+03 4.936000000000000000e+03 4.956000000000000000e+03 4.916000000000000000e+03 4.877000000000000000e+03 4.838000000000000000e+03 4.800000000000000000e+03 4.743000000000000000e+03 4.707000000000000000e+03 4.670000000000000000e+03 4.635000000000000000e+03 4.600000000000000000e+03 4.565000000000000000e+03 4.548000000000000000e+03 4.531000000000000000e+03 4.514000000000000000e+03 4.481000000000000000e+03 4.448000000000000000e+03 4.432000000000000000e+03 4.400000000000000000e+03 4.368000000000000000e+03 4.337000000000000000e+03 4.306000000000000000e+03 4.261000000000000000e+03 4.246000000000000000e+03 4.246000000000000000e+03 4.246000000000000000e+03 4.246000000000000000e+03 4.231000000000000000e+03 4.231000000000000000e+03 4.231000000000000000e+03 4.231000000000000000e+03 4.231000000000000000e+03 4.246000000000000000e+03 4.231000000000000000e+03 4.216000000000000000e+03 4.202000000000000000e+03 4.187000000000000000e+03 4.187000000000000000e+03 4.159000000000000000e+03 4.144000000000000000e+03 4.130000000000000000e+03 4.130000000000000000e+03 4.130000000000000000e+03 4.130000000000000000e+03 4.130000000000000000e+03 4.144000000000000000e+03 4.144000000000000000e+03 4.130000000000000000e+03 4.144000000000000000e+03 4.144000000000000000e+03 4.144000000000000000e+03 4.130000000000000000e+03 4.130000000000000000e+03 4.130000000000000000e+03 4.116000000000000000e+03 4.116000000000000000e+03 4.102000000000000000e+03 4.102000000000000000e+03 4.088000000000000000e+03 4.088000000000000000e+03 4.075000000000000000e+03 4.075000000000000000e+03 4.061000000000000000e+03 4.061000000000000000e+03 4.048000000000000000e+03 4.048000000000000000e+03 4.034000000000000000e+03 4.021000000000000000e+03 4.021000000000000000e+03 4.008000000000000000e+03 3.994000000000000000e+03 3.968000000000000000e+03 3.955000000000000000e+03 3.930000000000000000e+03 3.917000000000000000e+03 3.904000000000000000e+03 3.880000000000000000e+03 3.867000000000000000e+03 3.855000000000000000e+03 3.843000000000000000e+03 3.831000000000000000e+03
4.652000000000000000e+03 4.652000000000000000e+03 4.670000000000000000e+03 4.670000000000000000e+03 4.670000000000000000e+03 4.670000000000000000e+03 4.670000000000000000e+03 4.670000000000000000e+03 4.670000000000000000e+03 4.707000000000000000e+03 4.725000000000000000e+03 4.725000000000000000e+03 4.743000000000000000e+03 4.743000000000000000e+03 4.762000000000000000e+03 4.781000000000000000e+03 4.781000000000000000e+03 4.800000000000000000e+03 4.800000000000000000e+03 4.819000000000000000e+03 4.838000000000000000e+03 4.838000000000000000e+03 4.838000000000000000e+03 4.857000000000000000e+03 4.857000000000000000e+03 4.857000000000000000e+03 4.877000000000000000e+03 4.877000000000000000e+03 4.857000000000000000e+03 4.857000000000000000e+03 4.877000000000000000e+03 4.857000000000000000e+03 4.877000000000000000e+03 4.877000000000000000e+03 4.896000000000000000e+03 4.896000000000000000e+03 4.916000000000000000e+03 4.936000000000000000e+03 4.936000000000000000e+03 4.936000000000000000e+03 4.936000000000000000e+03 4.896000000000000000e+03 4.857000000000000000e+03 4.819000000000000000e+03 4.762000000000000000e+03 4.725000000000000000e+03 4.688000000000000000e+03 4.652000000000000000e+03 4.600000000000000000e+03 4.565000000000000000e+03 4.548000000000000000e+03 4.548000000000000000e+03 4.514000000000000000e+03 4.481000000000000000e+03 4.464000000000000000e+03 4.432000000000000000e+03 4.400000000000000000e+03 4.368000000000000000e+03 4.337000000000000000e+03 4.306000000000000000e+03 4.261000000000000000e+03 4.231000000000000000e+03 4.231000000000000000e+03 4.246000000000000000e+03 4.246000000000000000e+03 4.231000000000000000e+03 4.216000000000000000e+03 4.216000000000000000e+03 4.231000000000000000e+03 4.231000000000000000e+03 4.231000000000000000e+03 4.216000000000000000e+03 4.216000000000000000e+03 4.202000000000000000e+03 4.187000000000000000e+03 4.173000000000000000e+03 4.159000000000000000e+03 4.144000000000000000e+03 4.130000000000000000e+03 4.130000000000000000e+03 4.116000000000000000e+03 4.116000000000000000e+03 4.116000000000000000e+03 4.116000000000000000e+03 4.116000000000000000e+03 4.116000000000000000e+03 4.116000000000000000e+03 4.116000000000000000e+03 4.116000000000000000e+03 4.116000000000000000e+03 4.116000000000000000e+03 4.102000000000000000e+03 4.102000000000000000e+03 4.088000000000000000e+03 4.088000000000000000e+03 4.075000000000000000e+03 4.075000000000000000e+03 4.061000000000000000e+03 4.061000000000000000e+03 4.048000000000000000e+03 4.048000000000000000e+03 4.034000000000000000e+03 4.034000000000000000e+03 4.021000000000000000e+03 4.008000000000000000e+03 4.008000000000000000e+03 3.994000000000000000e+03 3.981000000000000000e+03 3.955000000000000000e+03 3.942000000000000000e+03 3.930000000000000000e+03 3.917000000000000000e+03 3.904000000000000000e+03 3.880000000000000000e+03 3.867000000000000000e+03 3.855000000000000000e+03 3.843000000000000000e+03 3.831000000000000000e+03 3.831000000000000000e+03
4.652000000000000000e+03 4.652000000000000000e+03 4.652000000000000000e+03 4.652000000000000000e+03 4.652000000000000000e+03 4.652000000000000000e+03 4.652000000000000000e+03 4.652000000000000000e+03 4.670000000000000000e+03 4.670000000000000000e+03 4.688000000000000000e+03 4.707000000000000000e+03 4.725000000000000000e+03 4.725000000000000000e+03 4.743000000000000000e+03 4.743000000000000000e+03 4.762000000000000000e+03 4.762000000000000000e+03 4.781000000000000000e+03 4.781000000000000000e+03 4.819000000000000000e+03 4.819000000000000000e+03 4.819000000000000000e+03 4.819000000000000000e+03 4.838000000000000000e+03 4.838000000000000000e+03 4.838000000000000000e+03 4.838000000000000000e+03 4.819000000000000000e+03 4.838000000000000000e+03 4.819000000000000000e+03 4.838000000000000000e+03 4.838000000000000000e+03 4.857000000000000000e+03 4.857000000000000000e+03 4.877000000000000000e+03 4.896000000000000000e+03 4.916000000000000000e+03 4.936000000000000000e+03 4.956000000000000000e+03 4.956000000000000000e+03 4.936000000000000000e+03 4.877000000000000000e+03 4.838000000000000000e+03 4.781000000000000000e+03 4.743000000000000000e+03 4.707000000000000000e+03 4.635000000000000000e+03 4.600000000000000000e+03 4.565000000000000000e+03 4.531000000000000000e+03 4.531000000000000000e+03 4.497000000000000000e+03 4.481000000000000000e+03 4.448000000000000000e+03 4.416000000000000000e+03 4.384000000000000000e+03 4.352000000000000000e+03 4.337000000000000000e+03 4.291000000000000000e+03 4.246000000000000000e+03 4.231000000000000000e+03 4.231000000000000000e+03 4.246000000000000000e+03 4.246000000000000000e+03 4.231000000000000000e+03 4.216000000000000000e+03 4.216000000000000000e+03 4.216000000000000000e+03 4.216000000000000000e+03 4.216000000000000000e+03 4.216000000000000000e+03 4.202000000000000000e+03 4.187000000000000000e+03 4.173000000000000000e+03 4.173000000000000000e+03 4.144000000000000000e+03 4.144000000000000000e+03 4.116000000000000000e+03 4.116000000000000000e+03 4.102000000000000000e+03 4.102000000000000000e+03 4.102000000000000000e+03 4.102000000000000000e+03 4.102000000000000000e+03 4.102000000000000000e+03 4.088000000000000000e+03 4.088000000000000000e+03 4.088000000000000000e+03 4.088000000000000000e+03 4.088000000000000000e+03 4.075000000000000000e+03 4.075000000000000000e+03 4.061000000000000000e+03 4.061000000000000000e+03 4.048000000000000000e+03 4.048000000000000000e+03 4.034000000000000000e+03 4.034000000000000000e+03 4.034000000000000000e+03 4.021000000000000000e+03 4.008000000000000000e+03 4.008000000000000000e+03 3.994000000000000000e+03 3.994000000000000000e+03 3.981000000000000000e+03 3.968000000000000000e+03 3.955000000000000000e+03 3.942000000000000000e+03 3.930000000000000000e+03 3.904000000000000000e+03 3.892000000000000000e+03 3.880000000000000000e+03 3.867000000000000000e+03 3.855000000000000000e+03 3.843000000000000000e+03 3.843000000000000000e+03 3.831000000000000000e+03 3.819000000000000000e+03
4.652000000000000000e+03 4.652000000000000000e+03 4.652000000000000000e+03 4.652000000000000000e+03 4.652000000000000000e+03 4.652000000000000000e+03 4.652000000000000000e+03 4.652000000000000000e+03 4.670000000000000000e+03 4.670000000000000000e+03 4.688000000000000000e+03 4.707000000000000000e+03 4.707000000000000000e+03 4.725000000000000000e+03 4.743000000000000000e+03 4.743000000000000000e+03 4.762000000000000000e+03 4.762000000000000000e+03 4.762000000000000000e+03 4.762000000000000000e+03 4.781000000000000000e+03 4.800000000000000000e+03 4.800000000000000000e+03 4.800000000000000000e+03 4.800000000000000000e+03 4.819000000000000000e+03 4.819000000000000000e+03 4.819000000000000000e+03 4.800000000000000000e+03 4.781000000000000000e+03 4.800000000000000000e+03 4.819000000000000000e+03 4.819000000000000000e+03 4.819000000000000000e+03 4.838000000000000000e+03 4.857000000000000000e+03 4.877000000000000000e+03 4.916000000000000000e+03 4.936000000000000000e+03 4.956000000000000000e+03 4.956000000000000000e+03 4.936000000000000000e+03 4.896000000000000000e+03 4.857000000000000000e+03 4.781000000000000000e+03 4.743000000000000000e+03 4.688000000000000000e+03 4.635000000000000000e+03 4.600000000000000000e+03 4.548000000000000000e+03 4.514000000000000000e+03 4.514000000000000000e+03 4.497000000000000000e+03 4.464000000000000000e+03 4.432000000000000000e+03 4.416000000000000000e+03 4.384000000000000000e+03 4.352000000000000000e+03 4.337000000000000000e+03 4.291000000000000000e+03 4.246000000000000000e+03 4.231000000000000000e+03 4.231000000000000000e+03 4.246000000000000000e+03 4.231000000000000000e+03 4.231000000000000000e+03 4.216000000000000000e+03 4.216000000000000000e+03 4.216000000000000000e+03 4.216000000000000000e+03 4.216000000000000000e+03 4.202000000000000000e+03 4.173000000000000000e+03 4.173000000000000000e+03 4.159000000000000000e+03 4.159000000000000000e+03 4.130000000000000000e+03 4.116000000000000000e+03 4.102000000000000000e+03 4.102000000000000000e+03 4.088000000000000000e+03 4.088000000000000000e+03 4.088000000000000000e+03 4.088000000000000000e+03 4.088000000000000000e+03 4.075000000000000000e+03 4.075000000000000000e+03 4.061000000000000000e+03 4.061000000000000000e+03 4.061000000000000000e+03 4.061000000000000000e+03 4.048000000000000000e+03 4.048000000000000000e+03 4.034000000000000000e+03 4.034000000000000000e+03 4.021000000000000000e+03 4.021000000000000000e+03 4.008000000000000000e+03 4.008000000000000000e+03 3.994000000000000000e+03 3.994000000000000000e+03 3.981000000000000000e+03 3.981000000000000000e+03 3.968000000000000000e+03 3.955000000000000000e+03 3.942000000000000000e+03 3.942000000000000000e+03 3.930000000000000000e+03 3.917000000000000000e+03 3.904000000000000000e+03 3.892000000000000000e+03 3.880000000000000000e+03 3.867000000000000000e+03 3.855000000000000000e+03 3.843000000000000000e+03 3.831000000000000000e+03 3.831000000000000000e+03 3.819000000000000000e+03 3.819000000000000000e+03
4.652000000000000000e+03 4.670000000000000000e+03 4.670000000000000000e+03 4.652000000000000000e+03 4.652000000000000000e+03 4.652000000000000000e+03 4.652000000000000000e+03 4.652000000000000000e+03 4.670000000000000000e+03 4.670000000000000000e+03 4.688000000000000000e+03 4.688000000000000000e+03 4.707000000000000000e+03 4.725000000000000000e+03 4.725000000000000000e+03 4.743000000000000000e+03 4.743000000000000000e+03 4.743000000000000000e+03 4.743000000000000000e+03 4.743000000000000000e+03 4.762000000000000000e+03 4.762000000000000000e+03 4.762000000000000000e+03 4.762000000000000000e+03 4.762000000000000000e+03 4.762000000000000000e+03 4.762000000000000000e+03 4.762000000000000000e+03 4.762000000000000000e+03 4.762000000000000000e+03 4.762000000000000000e+03 4.781000000000000000e+03 4.800000000000000000e+03 4.819000000000000000e+03 4.819000000000000000e+03 4.838000000000000000e+03 4.857000000000000000e+03 4.916000000000000000e+03 4.936000000000000000e+03 4.977000000000000000e+03 4.977000000000000000e+03 4.956000000000000000e+03 4.916000000000000000e+03 4.857000000000000000e+03 4.800000000000000000e+03 4.762000000000000000e+03 4.688000000000000000e+03 4.635000000000000000e+03 4.582000000000000000e+03 4.531000000000000000e+03 4.514000000000000000e+03 4.514000000000000000e+03 4.497000000000000000e+03 4.448000000000000000e+03 4.432000000000000000e+03 4.400000000000000000e+03 4.384000000000000000e+03 4.352000000000000000e+03 4.321000000000000000e+03 4.291000000000000000e+03 4.246000000000000000e+03 4.216000000000000000e+03 4.231000000000000000e+03 4.231000000000000000e+03 4.231000000000000000e+03 4.231000000000000000e+03 4.202000000000000000e+03 4.202000000000000000e+03 4.187000000000000000e+03 4.202000000000000000e+03 4.202000000000000000e+03 4.187000000000000000e+03 4.173000000000000000e+03 4.159000000000000000e+03 4.144000000000000000e+03 4.144000000000000000e+03 4.116000000000000000e+03 4.116000000000000000e+03 4.102000000000000000e+03 4.088000000000000000e+03 4.088000000000000000e+03 4.075000000000000000e+03 4.075000000000000000e+03 4.061000000000000000e+03 4.061000000000000000e+03 4.061000000000000000e+03 4.048000000000000000e+03 4.048000000000000000e+03 4.034000000000000000e+03 4.021000000000000000e+03 4.021000000000000000e+03 4.021000000000000000e+03 4.008000000000000000e+03 4.008000000000000000e+03 3.994000000000000000e+03 3.981000000000000000e+03 3.981000000000000000e+03 3.968000000000000000e+03 3.968000000000000000e+03 3.955000000000000000e+03 3.955000000000000000e+03 3.942000000000000000e+03 3.942000000000000000e+03 3.930000000000000000e+03 3.917000000000000000e+03 3.917000000000000000e+03 3.904000000000000000e+03 3.892000000000000000e+03 3.880000000000000000e+03 3.880000000000000000e+03 3.867000000000000000e+03 3.855000000000000000e+03 3.843000000000000000e+03 3.831000000000000000e+03 3.831000000000000000e+03 3.831000000000000000e+03 3.819000000000000000e+03 3.819000000000000000e+03 3.807000000000000000e+03
4.652000000000000000e+03 4.635000000000000000e+03 4.652000000000000000e+03 4.652000000000000000e+03 4.635000000000000000e+03 4.635000000000000000e+03 4.635000000000000000e+03 4.652000000000000000e+03 4.652000000000000000e+03 4.670000000000000000e+03 4.688000000000000000e+03 4.707000000000000000e+03 4.707000000000000000e+03 4.725000000000000000e+03 4.725000000000000000e+03 4.725000000000000000e+03 4.743000000000000000e+03 4.725000000000000000e+03 4.725000000000000000e+03 4.725000000000000000e+03 4.743000000000000000e+03 4.725000000000000000e+03 4.725000000000000000e+03 4.725000000000000000e+03 4.707000000000000000e+03 4.707000000000000000e+03 4.707000000000000000e+03 4.725000000000000000e+03 4.725000000000000000e+03 4.725000000000000000e+03 4.743000000000000000e+03 4.762000000000000000e+03 4.781000000000000000e+03 4.800000000000000000e+03 4.819000000000000000e+03 4.838000000000000000e+03 4.877000000000000000e+03 4.896000000000000000e+03 4.956000000000000000e+03 4.977000000000000000e+03 4.997000000000000000e+03 4.977000000000000000e+03 4.916000000000000000e+03 4.857000000000000000e+03 4.819000000000000000e+03 4.762000000000000000e+03 4.707000000000000000e+03 4.635000000000000000e+03 4.582000000000000000e+03 4.531000000000000000e+03 4.497000000000000000e+03 4.497000000000000000e+03 4.481000000000000000e+03 4.464000000000000000e+03 4.432000000000000000e+03 4.400000000000000000e+03 4.368000000000000000e+03 4.352000000000000000e+03 4.321000000000000000e+03 4.291000000000000000e+03 4.246000000000000000e+03 4.216000000000000000e+03 4.216000000000000000e+03 4.231000000000000000e+03 4.231000000000000000e+03 4.216000000000000000e+03 4.202000000000000000e+03 4.187000000000000000e+03 4.187000000000000000e+03 4.187000000000000000e+03 4.187000000000000000e+03 4.173000000000000000e+03 4.144000000000000000e+03 4.130000000000000000e+03 4.130000000000000000e+03 4.116000000000000000e+03 4.116000000000000000e+03 4.102000000000000000e+03 4.088000000000000000e+03 4.075000000000000000e+03 4.075000000000000000e+03 4.061000000000000000e+03 4.048000000000000000e+03 4.034000000000000000e+03 4.034000000000000000e+03 4.034000000000000000e+03 4.021000000000000000e+03 4.008000000000000000e+03 4.008000000000000000e+03 3.994000000000000000e+03 3.981000000000000000e+03 3.968000000000000000e+03 3.968000000000000000e+03 3.955000000000000000e+03 3.942000000000000000e+03 3.930000000000000000e+03 3.930000000000000000e+03 3.917000000000000000e+03 3.917000000000000000e+03 3.904000000000000000e+03 3.904000000000000000e+03 3.892000000000000000e+03 3.892000000000000000e+03 3.892000000000000000e+03 3.880000000000000000e+03 3.867000000000000000e+03 3.867000000000000000e+03 3.855000000000000000e+03 3.843000000000000000e+03 3.843000000000000000e+03 3.831000000000000000e+03 3.831000000000000000e+03 3.819000000000000000e+03 3.819000000000000000e+03 3.819000000000000000e+03 3.807000000000000000e+03 3.807000000000000000e+03 3.807000000000000000e+03 3.795000000000000000e+03
4.652000000000000000e+03 4.617000000000000000e+03 4.635000000000000000e+03 4.635000000000000000e+03 4.635000000000000000e+03 4.617000000000000000e+03 4.617000000000000000e+03 4.635000000000000000e+03 4.652000000000000000e+03 4.652000000000000000e+03 4.670000000000000000e+03 4.688000000000000000e+03 4.688000000000000000e+03 4.707000000000000000e+03 4.707000000000000000e+03 4.707000000000000000e+03 4.707000000000000000e+03 4.707000000000000000e+03 4.707000000000000000e+03 4.707000000000000000e+03 4.725000000000000000e+03 4.707000000000000000e+03 4.707000000000000000e+03 4.688000000000000000e+03 4.688000000000000000e+03 4.670000000000000000e+03 4.688000000000000000e+03 4.688000000000000000e+03 4.688000000000000000e+03 4.688000000000000000e+03 4.707000000000000000e+03 4.725000000000000000e+03 4.743000000000000000e+03 4.781000000000000000e+03 4.800000000000000000e+03 4.819000000000000000e+03 0.000000000000000000e+00 4.916000000000000000e+03 4.956000000000000000e+03 4.977000000000000000e+03 4.997000000000000000e+03 4.956000000000000000e+03 4.896000000000000000e+03 4.838000000000000000e+03 4.781000000000000000e+03 4.725000000000000000e+03 4.670000000000000000e+03 4.600000000000000000e+03 4.565000000000000000e+03 4.514000000000000000e+03 4.481000000000000000e+03 4.481000000000000000e+03 4.481000000000000000e+03 4.464000000000000000e+03 4.416000000000000000e+03 4.400000000000000000e+03 4.368000000000000000e+03 4.352000000000000000e+03 4.321000000000000000e+03 4.291000000000000000e+03 4.246000000000000000e+03 4.216000000000000000e+03 4.216000000000000000e+03 4.216000000000000000e+03 4.216000000000000000e+03 4.202000000000000000e+03 4.187000000000000000e+03 4.173000000000000000e+03 4.173000000000000000e+03 4.173000000000000000e+03 4.159000000000000000e+03 4.159000000000000000e+03 4.130000000000000000e+03 4.116000000000000000e+03 4.116000000000000000e+03 4.102000000000000000e+03 4.102000000000000000e+03 4.088000000000000000e+03 4.075000000000000000e+03 4.061000000000000000e+03 4.048000000000000000e+03 4.034000000000000000e+03 4.021000000000000000e+03 4.021000000000000000e+03 4.008000000000000000e+03 3.994000000000000000e+03 3.981000000000000000e+03 3.968000000000000000e+03 3.955000000000000000e+03 3.942000000000000000e+03 3.930000000000000000e+03 3.917000000000000000e+03 3.904000000000000000e+03 3.892000000000000000e+03 3.892000000000000000e+03 3.880000000000000000e+03 3.867000000000000000e+03 3.867000000000000000e+03 3.855000000000000000e+03 3.855000000000000000e+03 3.843000000000000000e+03 3.843000000000000000e+03 3.843000000000000000e+03 3.843000000000000000e+03 3.831000000000000000e+03 3.819000000000000000e+03 3.819000000000000000e+03 3.807000000000000000e+03 3.807000000000000000e+03 3.807000000000000000e+03 3.795000000000000000e+03 3.795000000000000000e+03 3.795000000000000000e+03 3.795000000000000000e+03 3.795000000000000000e+03 3.795000000000000000e+03 3.795000000000000000e+03 3.795000000000000000e+03 3.783000000000000000e+03
4.617000000000000000e+03 4.600000000000000000e+03 4.600000000000000000e+03 4.600000000000000000e+03 0.000000000000000000e+00 0.000000000000000000e+00 0.000000000000000000e+00 4.617000000000000000e+03 4.635000000000000000e+03 4.635000000000000000e+03 4.670000000000000000e+03 4.670000000000000000e+03 4.670000000000000000e+03 4.688000000000000000e+03 4.688000000000000000e+03 4.688000000000000000e+03 4.688000000000000000e+03 4.688000000000000000e+03 4.670000000000000000e+03 4.670000000000000000e+03 4.652000000000000000e+03 4.652000000000000000e+03 4.635000000000000000e+03 4.652000000000000000e+03 4.635000000000000000e+03 4.635000000000000000e+03 4.635000000000000000e+03 4.652000000000000000e+03 4.652000000000000000e+03 4.652000000000000000e+03 4.670000000000000000e+03 0.000000000000000000e+00 4.725000000000000000e+03 4.743000000000000000e+03 4.781000000000000000e+03 4.819000000000000000e+03 4.857000000000000000e+03 4.916000000000000000e+03 4.956000000000000000e+03 4.997000000000000000e+03 4.956000000000000000e+03 4.936000000000000000e+03 4.857000000000000000e+03 4.781000000000000000e+03 4.725000000000000000e+03 4.688000000000000000e+03 4.635000000000000000e+03 4.565000000000000000e+03 4.514000000000000000e+03 4.481000000000000000e+03 4.464000000000000000e+03 4.464000000000000000e+03 4.464000000000000000e+03 4.448000000000000000e+03 4.416000000000000000e+03 4.384000000000000000e+03 4.368000000000000000e+03 4.352000000000000000e+03 4.321000000000000000e+03 4.291000000000000000e+03 4.246000000000000000e+03 4.216000000000000000e+03 4.202000000000000000e+03 4.216000000000000000e+03 4.202000000000000000e+03 4.187000000000000000e+03 4.173000000000000000e+03 4.144000000000000000e+03 4.130000000000000000e+03 4.130000000000000000e+03 4.130000000000000000e+03 4.116000000000000000e+03 4.088000000000000000e+03 4.088000000000000000e+03 4.075000000000000000e+03 4.075000000000000000e+03 4.061000000000000000e+03 4.048000000000000000e+03 4.034000000000000000e+03 4.034000000000000000e+03 4.021000000000000000e+03 4.008000000000000000e+03 3.981000000000000000e+03 3.968000000000000000e+03 3.955000000000000000e+03 3.955000000000000000e+03 3.930000000000000000e+03 3.917000000000000000e+03 3.904000000000000000e+03 3.880000000000000000e+03 3.867000000000000000e+03 3.855000000000000000e+03 3.855000000000000000e+03 3.843000000000000000e+03 3.831000000000000000e+03 3.819000000000000000e+03 3.807000000000000000e+03 3.807000000000000000e+03 3.807000000000000000e+03 3.795000000000000000e+03 3.795000000000000000e+03 3.783000000000000000e+03 3.783000000000000000e+03 3.783000000000000000e+03 3.783000000000000000e+03 3.783000000000000000e+03 3.771000000000000000e+03 3.771000000000000000e+03 3.771000000000000000e+03 3.759000000000000000e+03 3.759000000000000000e+03 3.759000000000000000e+03 3.759000000000000000e+03 3.771000000000000000e+03 3.771000000000000000e+03 3.771000000000000000e+03 3.771000000000000000e+03 3.771000000000000000e+03 3.771000000000000000e+03
4.582000000000000000e+03 4.582000000000000000e+03 4.565000000000000000e+03 4.548000000000000000e+03 4.548000000000000000e+03 0.000000000000000000e+00 0.000000000000000000e+00 4.582000000000000000e+03 4.582000000000000000e+03 4.600000000000000000e+03 4.635000000000000000e+03 4.635000000000000000e+03 4.652000000000000000e+03 4.670000000000000000e+03 4.670000000000000000e+03 4.670000000000000000e+03 4.652000000000000000e+03 4.652000000000000000e+03 4.652000000000000000e+03 4.635000000000000000e+03 4.617000000000000000e+03 4.617000000000000000e+03 4.600000000000000000e+03 4.582000000000000000e+03 4.582000000000000000e+03 4.582000000000000000e+03 4.582000000000000000e+03 4.600000000000000000e+03 4.600000000000000000e+03 4.635000000000000000e+03 4.652000000000000000e+03 0.000000000000000000e+00 0.000000000000000000e+00 4.725000000000000000e+03 0.000000000000000000e+00 0.000000000000000000e+00 0.000000000000000000e+00 0.000000000000000000e+00 0.000000000000000000e+00 0.000000000000000000e+00 4.936000000000000000e+03 4.877000000000000000e+03 4.800000000000000000e+03 4.743000000000000000e+03 4.688000000000000000e+03 0.000000000000000000e+00 4.565000000000000000e+03 4.514000000000000000e+03 4.464000000000000000e+03 4.448000000000000000e+03 4.432000000000000000e+03 4.448000000000000000e+03 4.448000000000000000e+03 4.432000000000000000e+03 4.400000000000000000e+03 4.384000000000000000e+03 4.368000000000000000e+03 4.337000000000000000e+03 4.321000000000000000e+03 4.291000000000000000e+03 4.246000000000000000e+03 4.216000000000000000e+03 4.202000000000000000e+03 4.202000000000000000e+03 4.187000000000000000e+03 4.173000000000000000e+03 4.144000000000000000e+03 4.130000000000000000e+03 4.102000000000000000e+03 4.102000000000000000e+03 4.088000000000000000e+03 4.075000000000000000e+03 4.061000000000000000e+03 4.048000000000000000e+03 4.048000000000000000e+03 4.034000000000000000e+03 4.021000000000000000e+03 4.021000000000000000e+03 4.008000000000000000e+03 3.994000000000000000e+03 3.981000000000000000e+03 3.968000000000000000e+03 3.955000000000000000e+03 3.930000000000000000e+03 3.917000000000000000e+03 3.904000000000000000e+03 3.880000000000000000e+03 3.867000000000000000e+03 3.855000000000000000e+03 3.831000000000000000e+03 3.819000000000000000e+03 3.807000000000000000e+03 3.795000000000000000e+03 3.783000000000000000e+03 3.771000000000000000e+03 3.759000000000000000e+03 3.748000000000000000e+03 3.748000000000000000e+03 3.748000000000000000e+03 3.748000000000000000e+03 3.736000000000000000e+03 3.736000000000000000e+03 3.736000000000000000e+03 3.736000000000000000e+03 3.736000000000000000e+03 3.736000000000000000e+03 3.736000000000000000e+03 3.736000000000000000e+03 3.725000000000000000e+03 3.736000000000000000e+03 3.736000000000000000e+03 3.736000000000000000e+03 3.736000000000000000e+03 3.748000000000000000e+03 3.748000000000000000e+03 3.759000000000000000e+03 3.759000000000000000e+03 3.759000000000000000e+03 3.759000000000000000e+03
0.000000000000000000e+00 0.000000000000000000e+00 0.000000000000000000e+00 0.000000000000000000e+00 0.000000000000000000e+00 4.497000000000000000e+03 0.000000000000000000e+00 0.000000000000000000e+00 4.548000000000000000e+03 4.565000000000000000e+03 4.600000000000000000e+03 4.617000000000000000e+03 4.635000000000000000e+03 4.635000000000000000e+03 4.635000000000000000e+03 4.635000000000000000e+03 4.635000000000000000e+03 4.617000000000000000e+03 4.617000000000000000e+03 4.600000000000000000e+03 4.582000000000000000e+03 4.582000000000000000e+03 4.565000000000000000e+03 4.548000000000000000e+03 4.548000000000000000e+03 4.548000000000000000e+03 4.565000000000000000e+03 4.565000000000000000e+03 4.565000000000000000e+03 4.600000000000000000e+03 4.617000000000000000e+03 0.000000000000000000e+00 0.000000000000000000e+00 4.670000000000000000e+03 0.000000000000000000e+00 0.000000000000000000e+00 0.000000000000000000e+00 0.000000000000000000e+00 0.000000000000000000e+00 0.000000000000000000e+00 4.857000000000000000e+03 4.800000000000000000e+03 4.725000000000000000e+03 4.670000000000000000e+03 4.617000000000000000e+03 4.565000000000000000e+03 4.514000000000000000e+03 4.464000000000000000e+03 4.416000000000000000e+03 4.400000000000000000e+03 4.400000000000000000e+03 4.432000000000000000e+03 4.432000000000000000e+03 4.416000000000000000e+03 4.400000000000000000e+03 4.384000000000000000e+03 4.368000000000000000e+03 4.337000000000000000e+03 4.321000000000000000e+03 4.276000000000000000e+03 4.231000000000000000e+03 4.202000000000000000e+03 4.187000000000000000e+03 4.187000000000000000e+03 4.187000000000000000e+03 4.159000000000000000e+03 4.130000000000000000e+03 4.102000000000000000e+03 4.088000000000000000e+03 4.075000000000000000e+03 4.061000000000000000e+03 4.061000000000000000e+03 4.034000000000000000e+03 4.021000000000000000e+03 4.021000000000000000e+03 4.008000000000000000e+03 4.008000000000000000e+03 3.994000000000000000e+03 3.981000000000000000e+03 3.968000000000000000e+03 3.955000000000000000e+03 3.942000000000000000e+03 3.917000000000000000e+03 3.892000000000000000e+03 3.880000000000000000e+03 3.855000000000000000e+03 3.831000000000000000e+03 3.819000000000000000e+03 3.795000000000000000e+03 3.783000000000000000e+03 3.771000000000000000e+03 3.759000000000000000e+03 3.748000000000000000e+03 3.736000000000000000e+03 3.725000000000000000e+03 3.713000000000000000e+03 3.702000000000000000e+03 3.691000000000000000e+03 3.691000000000000000e+03 3.691000000000000000e+03 3.691000000000000000e+03 3.680000000000000000e+03 3.680000000000000000e+03 3.691000000000000000e+03 3.691000000000000000e+03 3.691000000000000000e+03 3.691000000000000000e+03 3.691000000000000000e+03 3.691000000000000000e+03 3.691000000000000000e+03 3.702000000000000000e+03 3.702000000000000000e+03 3.713000000000000000e+03 3.725000000000000000e+03 3.725000000000000000e+03 3.736000000000000000e+03 3.736000000000000000e+03 3.748000000000000000e+03 3.748000000000000000e+03
4.464000000000000000e+03 4.448000000000000000e+03 0.000000000000000000e+00 0.000000000000000000e+00 0.000000000000000000e+00 4.464000000000000000e+03 0.000000000000000000e+00 0.000000000000000000e+00 4.514000000000000000e+03 4.531000000000000000e+03 4.565000000000000000e+03 4.582000000000000000e+03 4.600000000000000000e+03 4.600000000000000000e+03 4.600000000000000000e+03 4.600000000000000000e+03 0.000000000000000000e+00 4.582000000000000000e+03 4.582000000000000000e+03 0.000000000000000000e+00 4.548000000000000000e+03 0.000000000000000000e+00 0.000000000000000000e+00 0.000000000000000000e+00 0.000000000000000000e+00 4.531000000000000000e+03 4.531000000000000000e+03 4.548000000000000000e+03 4.548000000000000000e+03 4.565000000000000000e+03 4.582000000000000000e+03 4.600000000000000000e+03 0.000000000000000000e+00 0.000000000000000000e+00 0.000000000000000000e+00 0.000000000000000000e+00 0.000000000000000000e+00 0.000000000000000000e+00 0.000000000000000000e+00 0.000000000000000000e+00 0.000000000000000000e+00 0.000000000000000000e+00 0.000000000000000000e+00 4.617000000000000000e+03 4.582000000000000000e+03 4.514000000000000000e+03 4.481000000000000000e+03 4.432000000000000000e+03 4.384000000000000000e+03 4.368000000000000000e+03 4.384000000000000000e+03 4.416000000000000000e+03 4.416000000000000000e+03 4.400000000000000000e+03 4.400000000000000000e+03 4.384000000000000000e+03 4.352000000000000000e+03 4.337000000000000000e+03 4.306000000000000000e+03 4.276000000000000000e+03 4.231000000000000000e+03 4.202000000000000000e+03 4.187000000000000000e+03 4.187000000000000000e+03 4.173000000000000000e+03 4.144000000000000000e+03 4.116000000000000000e+03 4.088000000000000000e+03 4.061000000000000000e+03 4.048000000000000000e+03 4.034000000000000000e+03 4.021000000000000000e+03 4.008000000000000000e+03 3.994000000000000000e+03 3.994000000000000000e+03 3.981000000000000000e+03 3.981000000000000000e+03 3.968000000000000000e+03 3.955000000000000000e+03 3.942000000000000000e+03 3.930000000000000000e+03 3.904000000000000000e+03 3.880000000000000000e+03 3.867000000000000000e+03 3.843000000000000000e+03 3.819000000000000000e+03 3.795000000000000000e+03 3.771000000000000000e+03 3.748000000000000000e+03 3.736000000000000000e+03 3.713000000000000000e+03 3.702000000000000000e+03 3.691000000000000000e+03 3.680000000000000000e+03 3.669000000000000000e+03 3.657000000000000000e+03 3.646000000000000000e+03 3.646000000000000000e+03 3.646000000000000000e+03 3.636000000000000000e+03 3.636000000000000000e+03 3.636000000000000000e+03 3.636000000000000000e+03 3.636000000000000000e+03 3.646000000000000000e+03 3.646000000000000000e+03 3.646000000000000000e+03 3.646000000000000000e+03 3.657000000000000000e+03 3.657000000000000000e+03 3.669000000000000000e+03 3.680000000000000000e+03 3.691000000000000000e+03 3.702000000000000000e+03 3.713000000000000000e+03 3.725000000000000000e+03 3.725000000000000000e+03 3.736000000000000000e+03 3.736000000000000000e+03
4.432000000000000000e+03 4.416000000000000000e+03 4.416000000000000000e+03 4.400000000000000000e+03 0.000000000000000000e+00 0.000000000000000000e+00 0.000000000000000000e+00 4.481000000000000000e+03 4.497000000000000000e+03 4.514000000000000000e+03 4.548000000000000000e+03 4.565000000000000000e+03 4.582000000000000000e+03 4.582000000000000000e+03 4.582000000000000000e+03 4.582000000000000000e+03 4.582000000000000000e+03 4.582000000000000000e+03 4.565000000000000000e+03 4.548000000000000000e+03 4.548000000000000000e+03 4.531000000000000000e+03 4.514000000000000000e+03 4.514000000000000000e+03 4.514000000000000000e+03 4.514000000000000000e+03 4.531000000000000000e+03 4.531000000000000000e+03 4.600000000000000000e+03 0.000000000000000000e+00 4.617000000000000000e+03 0.000000000000000000e+00 0.000000000000000000e+00 0.000000000000000000e+00 0.000000000000000000e+00 0.000000000000000000e+00 0.000000000000000000e+00 0.000000000000000000e+00 0.000000000000000000e+00 4.781000000000000000e+03 4.743000000000000000e+03 4.670000000000000000e+03 0.000000000000000000e+00 4.565000000000000000e+03 4.514000000000000000e+03 4.464000000000000000e+03 4.432000000000000000e+03 4.384000000000000000e+03 4.352000000000000000e+03 4.352000000000000000e+03 4.368000000000000000e+03 4.384000000000000000e+03 4.400000000000000000e+03 4.400000000000000000e+03 4.384000000000000000e+03 4.368000000000000000e+03 4.352000000000000000e+03 4.337000000000000000e+03 4.306000000000000000e+03 4.276000000000000000e+03 4.231000000000000000e+03 4.202000000000000000e+03 4.187000000000000000e+03 4.173000000000000000e+03 4.159000000000000000e+03 4.116000000000000000e+03 4.088000000000000000e+03 4.061000000000000000e+03 4.034000000000000000e+03 4.021000000000000000e+03 4.008000000000000000e+03 3.994000000000000000e+03 3.981000000000000000e+03 3.968000000000000000e+03 3.968000000000000000e+03 3.955000000000000000e+03 3.942000000000000000e+03 3.942000000000000000e+03 3.930000000000000000e+03 3.917000000000000000e+03 3.892000000000000000e+03 3.880000000000000000e+03 3.855000000000000000e+03 3.831000000000000000e+03 3.807000000000000000e+03 3.771000000000000000e+03 3.748000000000000000e+03 3.725000000000000000e+03 3.702000000000000000e+03 3.680000000000000000e+03 3.669000000000000000e+03 3.657000000000000000e+03 3.646000000000000000e+03 3.625000000000000000e+03 3.614000000000000000e+03 3.603000000000000000e+03 3.603000000000000000e+03 3.603000000000000000e+03 3.593000000000000000e+03 3.593000000000000000e+03 3.593000000000000000e+03 3.593000000000000000e+03 3.593000000000000000e+03 3.593000000000000000e+03 3.603000000000000000e+03 3.603000000000000000e+03 3.614000000000000000e+03 3.614000000000000000e+03 3.614000000000000000e+03 3.625000000000000000e+03 3.636000000000000000e+03 3.646000000000000000e+03 3.669000000000000000e+03 3.680000000000000000e+03 3.691000000000000000e+03 3.702000000000000000e+03 3.713000000000000000e+03 3.725000000000000000e+03 3.736000000000000000e+03
4.384000000000000000e+03 4.384000000000000000e+03 4.368000000000000000e+03 4.384000000000000000e+03 0.000000000000000000e+00 4.400000000000000000e+03 4.432000000000000000e+03 4.448000000000000000e+03 4.464000000000000000e+03 4.481000000000000000e+03 4.531000000000000000e+03 4.548000000000000000e+03 4.548000000000000000e+03 4.565000000000000000e+03 4.565000000000000000e+03 4.565000000000000000e+03 4.565000000000000000e+03 4.565000000000000000e+03 4.548000000000000000e+03 4.548000000000000000e+03 4.531000000000000000e+03 4.531000000000000000e+03 4.514000000000000000e+03 4.514000000000000000e+03 4.497000000000000000e+03 4.514000000000000000e+03 4.514000000000000000e+03 4.531000000000000000e+03 4.582000000000000000e+03 4.600000000000000000e+03 4.600000000000000000e+03 4.617000000000000000e+03 0.000000000000000000e+00 0.000000000000000000e+00 0.000000000000000000e+00 0.000000000000000000e+00 0.000000000000000000e+00 0.000000000000000000e+00 0.000000000000000000e+00 4.743000000000000000e+03 4.688000000000000000e+03 0.000000000000000000e+00 4.600000000000000000e+03 4.531000000000000000e+03 4.481000000000000000e+03 4.432000000000000000e+03 4.400000000000000000e+03 4.368000000000000000e+03 4.337000000000000000e+03 4.337000000000000000e+03 4.352000000000000000e+03 4.384000000000000000e+03 4.400000000000000000e+03 4.400000000000000000e+03 4.384000000000000000e+03 4.368000000000000000e+03 4.352000000000000000e+03 4.337000000000000000e+03 4.306000000000000000e+03 4.276000000000000000e+03 4.231000000000000000e+03 4.202000000000000000e+03 4.173000000000000000e+03 4.159000000000000000e+03 4.144000000000000000e+03 4.102000000000000000e+03 4.075000000000000000e+03 4.048000000000000000e+03 4.021000000000000000e+03 3.994000000000000000e+03 3.981000000000000000e+03 3.968000000000000000e+03 3.955000000000000000e+03 3.955000000000000000e+03 3.942000000000000000e+03 3.942000000000000000e+03 3.930000000000000000e+03 3.930000000000000000e+03 3.917000000000000000e+03 3.892000000000000000e+03 3.880000000000000000e+03 3.855000000000000000e+03 3.831000000000000000e+03 3.795000000000000000e+03 3.771000000000000000e+03 3.736000000000000000e+03 3.713000000000000000e+03 3.691000000000000000e+03 3.657000000000000000e+03 3.646000000000000000e+03 3.625000000000000000e+03 3.614000000000000000e+03 3.603000000000000000e+03 3.582000000000000000e+03 3.582000000000000000e+03 3.571000000000000000e+03 3.561000000000000000e+03 3.561000000000000000e+03 3.551000000000000000e+03 3.551000000000000000e+03 3.551000000000000000e+03 3.551000000000000000e+03 3.561000000000000000e+03 3.561000000000000000e+03 3.561000000000000000e+03 3.571000000000000000e+03 3.571000000000000000e+03 3.582000000000000000e+03 3.582000000000000000e+03 3.593000000000000000e+03 3.614000000000000000e+03 3.625000000000000000e+03 3.646000000000000000e+03 3.669000000000000000e+03 3.680000000000000000e+03 3.702000000000000000e+03 3.713000000000000000e+03 3.725000000000000000e+03 3.736000000000000000e+03
